ply
format ascii 1.0
element vertex 240
property float x
property float y
property float z
property float vx
property float vy
property float vz
property float density
end_header
-0.031203 0.260000 0.410000 45.759496 -225.536484 -19.763352 500.000000
-0.108695 0.090000 0.410000 -73.739043 151.277707 -47.851588 500.000000
-0.108695 0.090000 0.290000 -73.739043 151.277707 47.900616 500.000000
-0.031203 0.260000 0.290000 45.759496 -225.536484 19.812380 500.000000
0.100496 0.260000 0.410000 34.985117 -41.744422 -13.510656 500.000000
0.260000 0.260000 0.410000 -69.423045 -242.678118 -37.771228 500.000000
0.260000 0.260000 0.290000 -69.423045 -242.678118 37.820257 500.000000
0.100496 0.260000 0.290000 34.985117 -41.744422 13.559684 500.000000
0.260000 0.175000 0.410000 -74.413882 -0.000000 -13.864734 500.000000
0.260000 0.175000 0.410000 -77.552251 -0.000000 -47.478444 500.000000
0.260000 0.175000 0.290000 -77.552251 -0.000000 47.527473 500.000000
0.260000 0.175000 0.290000 -74.413882 0.000000 13.913763 500.000000
0.100496 0.090000 0.410000 34.985117 41.744422 -13.510656 500.000000
0.260000 0.090000 0.410000 -69.423045 242.678118 -37.771228 500.000000
0.260000 0.090000 0.290000 -69.423045 242.678118 37.820257 500.000000
0.100496 0.090000 0.290000 34.985117 41.744422 13.559684 500.000000
-0.031203 0.090000 0.410000 45.759496 225.536484 -19.763352 500.000000
-0.108695 0.260000 0.410000 -73.739043 -151.277707 -47.851588 500.000000
-0.108695 0.260000 0.290000 -73.739043 -151.277707 47.900616 500.000000
-0.031203 0.090000 0.290000 45.759496 225.536484 19.812380 500.000000
0.260000 0.090000 0.410000 -54.078307 216.107142 -13.577752 500.000000
0.122960 0.090000 0.410000 76.591942 141.193884 -39.640619 500.000000
0.122960 0.090000 0.290000 76.591942 141.193884 39.689648 500.000000
0.260000 0.090000 0.290000 -54.078307 216.107142 13.626781 500.000000
0.205019 0.260000 0.308910 93.003726 -248.028749 -20.218063 500.000000
0.096005 0.260000 0.410000 71.200993 -237.137429 -31.052155 500.000000
0.096005 0.260000 0.290000 71.200993 -237.137429 31.101184 500.000000
0.205019 0.260000 0.390600 93.003726 -248.028749 20.120006 500.000000
0.260000 0.175000 0.298629 -59.526323 0.000000 -22.274243 500.000000
0.212834 0.175000 0.410000 94.566768 0.000000 -39.686023 500.000000
0.212834 0.175000 0.290000 94.566768 0.000000 39.735051 500.000000
0.260000 0.175000 0.400881 -59.526323 0.000000 22.176186 500.000000
0.205019 0.090000 0.308910 93.003726 248.028749 -20.218063 500.000000
0.096005 0.090000 0.410000 71.200993 237.137429 -31.052155 500.000000
0.096005 0.090000 0.290000 71.200993 237.137429 31.101184 500.000000
0.205019 0.090000 0.390600 93.003726 248.028749 20.120006 500.000000
0.260000 0.260000 0.410000 -54.078307 -216.107142 -13.577752 500.000000
0.122960 0.260000 0.410000 76.591942 -141.193884 -39.640619 500.000000
0.122960 0.260000 0.290000 76.591942 -141.193884 39.689648 500.000000
0.260000 0.260000 0.290000 -54.078307 -216.107142 13.626781 500.000000
-0.156004 0.090000 0.410000 -83.200880 214.041643 -13.370801 500.000000
-0.055012 0.090000 0.410000 -63.002324 297.415110 -38.897337 500.000000
-0.055012 0.090000 0.290000 -63.002324 297.415110 38.946365 500.000000
-0.156004 0.090000 0.290000 -83.200880 214.041643 13.419829 500.000000
-0.114552 0.260000 0.313544 -74.910316 -246.765395 -19.291112 500.000000
-0.049998 0.260000 0.410000 -61.999700 -236.826909 -30.711965 500.000000
-0.049998 0.260000 0.290000 -61.999700 -236.826909 30.760993 500.000000
-0.114552 0.260000 0.385965 -74.910316 -246.765395 19.193054 500.000000
-0.217501 0.175000 0.302499 -95.500200 0.000000 -21.500178 500.000000
-0.144197 0.175000 0.410000 -80.839433 0.000000 -39.522736 500.000000
-0.144197 0.175000 0.290000 -80.839433 -0.000000 39.571764 500.000000
-0.217501 0.175000 0.397011 -95.500200 0.000000 21.402121 500.000000
-0.114552 0.090000 0.313544 -74.910316 246.765395 -19.291112 500.000000
-0.049998 0.090000 0.410000 -61.999700 236.826909 -30.711965 500.000000
-0.049998 0.090000 0.290000 -61.999700 236.826909 30.760993 500.000000
-0.114552 0.090000 0.385965 -74.910316 246.765395 19.193054 500.000000
-0.156004 0.260000 0.410000 -83.200880 -214.041643 -13.370801 500.000000
-0.055012 0.260000 0.410000 -63.002324 -297.415110 -38.897337 500.000000
-0.055012 0.260000 0.290000 -63.002324 -297.415110 38.946365 500.000000
-0.156004 0.260000 0.290000 -83.200880 -214.041643 13.419829 500.000000
0.260000 0.090000 0.410000 -60.914009 290.115200 -12.812506 500.000000
-0.010092 0.090000 0.410000 49.981668 125.654052 -28.306229 500.000000
-0.010092 0.090000 0.290000 49.981668 125.654052 28.355258 500.000000
0.260000 0.090000 0.290000 -60.914009 290.115200 12.861535 500.000000
0.260000 0.260000 0.328454 -97.521675 -29.957729 -16.309148 500.000000
-0.260000 0.260000 0.410000 63.495996 -230.300048 -21.738792 500.000000
-0.260000 0.260000 0.290000 63.495996 -230.300048 21.787821 500.000000
0.260000 0.260000 0.371055 -97.521675 -29.957729 16.211090 500.000000
-0.062321 0.175000 0.319278 39.535858 -0.000000 -18.144478 500.000000
0.027442 0.175000 0.410000 -46.511504 -0.000000 -29.012082 500.000000
0.027442 0.175000 0.290000 -46.511504 0.000000 29.061111 500.000000
-0.062321 0.175000 0.380232 39.535858 0.000000 18.046421 500.000000
0.260000 0.090000 0.328454 -97.521675 29.957729 -16.309148 500.000000
-0.260000 0.090000 0.410000 63.495996 230.300048 -21.738792 500.000000
-0.260000 0.090000 0.290000 63.495996 230.300048 21.787821 500.000000
0.260000 0.090000 0.371055 -97.521675 29.957729 16.211090 500.000000
0.260000 0.260000 0.410000 -60.914009 -290.115200 -12.812506 500.000000
-0.010092 0.260000 0.410000 49.981668 -125.654052 -28.306229 500.000000
-0.010092 0.260000 0.290000 49.981668 -125.654052 28.355258 500.000000
0.260000 0.260000 0.290000 -60.914009 -290.115200 12.861535 500.000000
0.260000 0.090000 0.410000 -78.698876 70.662350 -12.810957 500.000000
0.260000 0.090000 0.410000 -48.670442 78.900620 -28.306236 500.000000
0.260000 0.090000 0.290000 -48.670442 78.900620 28.355265 500.000000
0.260000 0.090000 0.290000 -78.698876 70.662350 12.859986 500.000000
0.260000 0.260000 0.328416 -77.232537 -90.903551 -16.316862 500.000000
0.260000 0.260000 0.410000 -77.232537 -83.259215 -21.738365 500.000000
0.260000 0.260000 0.290000 -77.232537 -83.259215 21.787394 500.000000
0.260000 0.260000 0.371094 -77.232537 -90.903551 16.218804 500.000000
0.260000 0.175000 0.319239 -40.857477 0.000000 -18.152251 500.000000
0.260000 0.175000 0.410000 -40.857477 -0.000000 -29.011733 500.000000
0.260000 0.175000 0.290000 -40.857477 -0.000000 29.060761 500.000000
0.260000 0.175000 0.380271 -40.857477 -0.000000 18.054194 500.000000
0.260000 0.090000 0.328416 -77.232537 90.903551 -16.316862 500.000000
0.260000 0.090000 0.410000 -77.232537 83.259215 -21.738365 500.000000
0.260000 0.090000 0.290000 -77.232537 83.259215 21.787394 500.000000
0.260000 0.090000 0.371094 -77.232537 90.903551 16.218804 500.000000
0.260000 0.260000 0.410000 -78.698876 -70.662350 -12.810957 500.000000
0.260000 0.260000 0.410000 -48.670442 -78.900620 -28.306236 500.000000
0.260000 0.260000 0.290000 -48.670442 -78.900620 28.355265 500.000000
0.260000 0.260000 0.290000 -78.698876 -70.662350 12.859986 500.000000
0.001642 0.090000 0.410000 -51.671685 202.729676 -12.812427 500.000000
0.027933 0.090000 0.410000 -46.413427 211.156414 -28.306260 500.000000
0.027933 0.090000 0.290000 -46.413427 211.156414 28.355288 500.000000
0.001642 0.090000 0.290000 -51.671685 202.729676 12.861456 500.000000
-0.000433 0.260000 0.328407 -52.086675 -237.944000 -16.318529 500.000000
-0.000433 0.260000 0.410000 -52.086675 -230.299974 -21.738647 500.000000
-0.000433 0.260000 0.290000 -52.086675 -230.299974 21.787675 500.000000
-0.000433 0.260000 0.371102 -52.086675 -237.944000 16.220472 500.000000
-0.260000 0.175000 0.319237 45.095382 0.000000 -18.152607 500.000000
-0.260000 0.175000 0.410000 45.095382 -0.000000 -29.011667 500.000000
-0.260000 0.175000 0.290000 45.095382 0.000000 29.060695 500.000000
-0.260000 0.175000 0.380273 45.095382 -0.000000 18.054550 500.000000
-0.000433 0.090000 0.328407 -52.086675 237.944000 -16.318529 500.000000
-0.000433 0.090000 0.410000 -52.086675 230.299974 -21.738647 500.000000
-0.000433 0.090000 0.290000 -52.086675 230.299974 21.787675 500.000000
-0.000433 0.090000 0.371102 -52.086675 237.944000 16.220472 500.000000
0.001642 0.260000 0.410000 -51.671685 -202.729676 -12.812427 500.000000
0.027933 0.260000 0.410000 -46.413427 -211.156414 -28.306260 500.000000
0.027933 0.260000 0.290000 -46.413427 -211.156414 28.355288 500.000000
0.001642 0.260000 0.290000 -51.671685 -202.729676 12.861456 500.000000
-0.001642 0.090000 0.410000 51.671685 202.729676 -12.812427 500.000000
-0.027933 0.090000 0.410000 46.413427 211.156414 -28.306260 500.000000
-0.027933 0.090000 0.290000 46.413427 211.156414 28.355288 500.000000
-0.001642 0.090000 0.290000 51.671685 202.729676 12.861456 500.000000
0.000433 0.260000 0.328407 52.086675 -237.944000 -16.318529 500.000000
0.000433 0.260000 0.410000 52.086675 -230.299974 -21.738647 500.000000
0.000433 0.260000 0.290000 52.086675 -230.299974 21.787675 500.000000
0.000433 0.260000 0.371102 52.086675 -237.944000 16.220472 500.000000
0.260000 0.175000 0.319237 -45.095382 0.000000 -18.152607 500.000000
0.260000 0.175000 0.410000 -45.095382 0.000000 -29.011667 500.000000
0.260000 0.175000 0.290000 -45.095382 -0.000000 29.060695 500.000000
0.260000 0.175000 0.380273 -45.095382 0.000000 18.054550 500.000000
0.000433 0.090000 0.328407 52.086675 237.944000 -16.318529 500.000000
0.000433 0.090000 0.410000 52.086675 230.299974 -21.738647 500.000000
0.000433 0.090000 0.290000 52.086675 230.299974 21.787675 500.000000
0.000433 0.090000 0.371102 52.086675 237.944000 16.220472 500.000000
-0.001642 0.260000 0.410000 51.671685 -202.729676 -12.812427 500.000000
-0.027933 0.260000 0.410000 46.413427 -211.156414 -28.306260 500.000000
-0.027933 0.260000 0.290000 46.413427 -211.156414 28.355288 500.000000
-0.001642 0.260000 0.290000 51.671685 -202.729676 12.861456 500.000000
-0.260000 0.090000 0.410000 78.698876 70.662350 -12.810957 500.000000
-0.260000 0.090000 0.410000 48.670442 78.900620 -28.306236 500.000000
-0.260000 0.090000 0.290000 48.670442 78.900620 28.355265 500.000000
-0.260000 0.090000 0.290000 78.698876 70.662350 12.859986 500.000000
-0.260000 0.260000 0.328416 77.232537 -90.903551 -16.316862 500.000000
-0.260000 0.260000 0.410000 77.232537 -83.259215 -21.738365 500.000000
-0.260000 0.260000 0.290000 77.232537 -83.259215 21.787394 500.000000
-0.260000 0.260000 0.371094 77.232537 -90.903551 16.218804 500.000000
-0.260000 0.175000 0.319239 40.857477 -0.000000 -18.152251 500.000000
-0.260000 0.175000 0.410000 40.857477 0.000000 -29.011733 500.000000
-0.260000 0.175000 0.290000 40.857477 -0.000000 29.060761 500.000000
-0.260000 0.175000 0.380271 40.857477 0.000000 18.054194 500.000000
-0.260000 0.090000 0.328416 77.232537 90.903551 -16.316862 500.000000
-0.260000 0.090000 0.410000 77.232537 83.259215 -21.738365 500.000000
-0.260000 0.090000 0.290000 77.232537 83.259215 21.787394 500.000000
-0.260000 0.090000 0.371094 77.232537 90.903551 16.218804 500.000000
-0.260000 0.260000 0.410000 78.698876 -70.662350 -12.810957 500.000000
-0.260000 0.260000 0.410000 48.670442 -78.900620 -28.306236 500.000000
-0.260000 0.260000 0.290000 48.670442 -78.900620 28.355265 500.000000
-0.260000 0.260000 0.290000 78.698876 -70.662350 12.859986 500.000000
-0.260000 0.090000 0.410000 60.914009 290.115200 -12.812506 500.000000
0.010092 0.090000 0.410000 -49.981668 125.654052 -28.306229 500.000000
0.010092 0.090000 0.290000 -49.981668 125.654052 28.355258 500.000000
-0.260000 0.090000 0.290000 60.914009 290.115200 12.861535 500.000000
-0.260000 0.260000 0.328454 97.521675 -29.957729 -16.309148 500.000000
0.260000 0.260000 0.410000 -63.495996 -230.300048 -21.738792 500.000000
0.260000 0.260000 0.290000 -63.495996 -230.300048 21.787821 500.000000
-0.260000 0.260000 0.371055 97.521675 -29.957729 16.211090 500.000000
0.062321 0.175000 0.319278 -39.535858 0.000000 -18.144478 500.000000
-0.027442 0.175000 0.410000 46.511504 0.000000 -29.012082 500.000000
-0.027442 0.175000 0.290000 46.511504 -0.000000 29.061111 500.000000
0.062321 0.175000 0.380232 -39.535858 -0.000000 18.046421 500.000000
-0.260000 0.090000 0.328454 97.521675 29.957729 -16.309148 500.000000
0.260000 0.090000 0.410000 -63.495996 230.300048 -21.738792 500.000000
0.260000 0.090000 0.290000 -63.495996 230.300048 21.787821 500.000000
-0.260000 0.090000 0.371055 97.521675 29.957729 16.211090 500.000000
-0.260000 0.260000 0.410000 60.914009 -290.115200 -12.812506 500.000000
0.010092 0.260000 0.410000 -49.981668 -125.654052 -28.306229 500.000000
0.010092 0.260000 0.290000 -49.981668 -125.654052 28.355258 500.000000
-0.260000 0.260000 0.290000 60.914009 -290.115200 12.861535 500.000000
0.156004 0.090000 0.410000 83.200880 214.041643 -13.370801 500.000000
0.055012 0.090000 0.410000 63.002324 297.415110 -38.897337 500.000000
0.055012 0.090000 0.290000 63.002324 297.415110 38.946365 500.000000
0.156004 0.090000 0.290000 83.200880 214.041643 13.419829 500.000000
0.114552 0.260000 0.313544 74.910316 -246.765395 -19.291112 500.000000
0.049998 0.260000 0.410000 61.999700 -236.826909 -30.711965 500.000000
0.049998 0.260000 0.290000 61.999700 -236.826909 30.760993 500.000000
0.114552 0.260000 0.385965 74.910316 -246.765395 19.193054 500.000000
0.217501 0.175000 0.302499 95.500200 0.000000 -21.500178 500.000000
0.144197 0.175000 0.410000 80.839433 0.000000 -39.522736 500.000000
0.144197 0.175000 0.290000 80.839433 0.000000 39.571764 500.000000
0.217501 0.175000 0.397011 95.500200 0.000000 21.402121 500.000000
0.114552 0.090000 0.313544 74.910316 246.765395 -19.291112 500.000000
0.049998 0.090000 0.410000 61.999700 236.826909 -30.711965 500.000000
0.049998 0.090000 0.290000 61.999700 236.826909 30.760993 500.000000
0.114552 0.090000 0.385965 74.910316 246.765395 19.193054 500.000000
0.156004 0.260000 0.410000 83.200880 -214.041643 -13.370801 500.000000
0.055012 0.260000 0.410000 63.002324 -297.415110 -38.897337 500.000000
0.055012 0.260000 0.290000 63.002324 -297.415110 38.946365 500.000000
0.156004 0.260000 0.290000 83.200880 -214.041643 13.419829 500.000000
-0.260000 0.090000 0.410000 54.078307 216.107142 -13.577752 500.000000
-0.122960 0.090000 0.410000 -76.591942 141.193884 -39.640619 500.000000
-0.122960 0.090000 0.290000 -76.591942 141.193884 39.689648 500.000000
-0.260000 0.090000 0.290000 54.078307 216.107142 13.626781 500.000000
-0.205019 0.260000 0.308910 -93.003726 -248.028749 -20.218063 500.000000
-0.096005 0.260000 0.410000 -71.200993 -237.137429 -31.052155 500.000000
-0.096005 0.260000 0.290000 -71.200993 -237.137429 31.101184 500.000000
-0.205019 0.260000 0.390600 -93.003726 -248.028749 20.120006 500.000000
-0.260000 0.175000 0.298629 59.526323 0.000000 -22.274243 500.000000
-0.212834 0.175000 0.410000 -94.566768 -0.000000 -39.686023 500.000000
-0.212834 0.175000 0.290000 -94.566768 0.000000 39.735051 500.000000
-0.260000 0.175000 0.400881 59.526323 0.000000 22.176186 500.000000
-0.205019 0.090000 0.308910 -93.003726 248.028749 -20.218063 500.000000
-0.096005 0.090000 0.410000 -71.200993 237.137429 -31.052155 500.000000
-0.096005 0.090000 0.290000 -71.200993 237.137429 31.101184 500.000000
-0.205019 0.090000 0.390600 -93.003726 248.028749 20.120006 500.000000
-0.260000 0.260000 0.410000 54.078307 -216.107142 -13.577752 500.000000
-0.122960 0.260000 0.410000 -76.591942 -141.193884 -39.640619 500.000000
-0.122960 0.260000 0.290000 -76.591942 -141.193884 39.689648 500.000000
-0.260000 0.260000 0.290000 54.078307 -216.107142 13.626781 500.000000
0.031203 0.260000 0.410000 -45.759496 -225.536484 -19.763352 500.000000
0.108695 0.090000 0.410000 73.739043 151.277707 -47.851588 500.000000
0.108695 0.090000 0.290000 73.739043 151.277707 47.900616 500.000000
0.031203 0.260000 0.290000 -45.759496 -225.536484 19.812380 500.000000
-0.100496 0.260000 0.410000 -34.985117 -41.744422 -13.510656 500.000000
-0.260000 0.260000 0.410000 69.423045 -242.678118 -37.771228 500.000000
-0.260000 0.260000 0.290000 69.423045 -242.678118 37.820257 500.000000
-0.100496 0.260000 0.290000 -34.985117 -41.744422 13.559684 500.000000
-0.260000 0.175000 0.410000 74.413882 0.000000 -13.864734 500.000000
-0.260000 0.175000 0.410000 77.552251 -0.000000 -47.478444 500.000000
-0.260000 0.175000 0.290000 77.552251 -0.000000 47.527473 500.000000
-0.260000 0.175000 0.290000 74.413882 -0.000000 13.913763 500.000000
-0.100496 0.090000 0.410000 -34.985117 41.744422 -13.510656 500.000000
-0.260000 0.090000 0.410000 69.423045 242.678118 -37.771228 500.000000
-0.260000 0.090000 0.290000 69.423045 242.678118 37.820257 500.000000
-0.100496 0.090000 0.290000 -34.985117 41.744422 13.559684 500.000000
0.031203 0.090000 0.410000 -45.759496 225.536484 -19.763352 500.000000
0.108695 0.260000 0.410000 73.739043 -151.277707 -47.851588 500.000000
0.108695 0.260000 0.290000 73.739043 -151.277707 47.900616 500.000000
0.031203 0.090000 0.290000 -45.759496 225.536484 19.812380 500.000000
