ply
format ascii 1.0
element vertex 240
property float x
property float y
property float z
property float vx
property float vy
property float vz
property float density
end_header
0.260000 0.260000 0.290000 -24.739851 -20.110644 170.322705 500.000000
-0.088660 0.135886 0.410000 -69.731928 -24.822876 -16.837937 500.000000
0.260000 0.109196 0.336357 -75.931334 -30.160785 -14.728608 500.000000
0.059463 0.260000 0.410000 -23.866773 -20.168094 -171.748930 500.000000
-0.260000 0.176370 0.378739 21.346800 17.273917 -6.252274 500.000000
-0.153399 0.260000 0.410000 -82.679704 -18.117691 -16.689463 500.000000
-0.260000 0.260000 0.290000 64.107552 -20.786122 17.329517 500.000000
-0.039405 0.206025 0.356675 44.119049 23.205049 13.335084 500.000000
-0.260000 0.175001 0.393666 77.827905 0.000109 20.733131 500.000000
-0.260000 0.174970 0.410000 59.530277 -0.005976 -12.036396 500.000000
-0.260000 0.173574 0.290000 57.013056 -0.285293 12.469874 500.000000
-0.045627 0.175000 0.299337 -61.125302 0.000028 -22.132598 500.000000
-0.260000 0.173630 0.378739 21.346804 -17.273917 -6.252274 500.000000
-0.153399 0.090000 0.410000 -82.679704 18.117691 -16.689463 500.000000
-0.260000 0.090000 0.290000 64.107551 20.786122 17.329517 500.000000
-0.039405 0.143975 0.356675 44.119049 -23.205049 13.335084 500.000000
0.260000 0.090000 0.290000 -24.739851 20.110644 170.322705 500.000000
-0.088660 0.214114 0.410000 -69.731928 24.822876 -16.837937 500.000000
0.260000 0.240804 0.336357 -75.931335 30.160785 -14.728608 500.000000
0.059463 0.090000 0.410000 -23.866768 20.168094 -171.748930 500.000000
0.211767 0.125068 0.410000 27.743034 -26.986401 -20.506720 500.000000
-0.036774 0.142180 0.410000 -59.354850 -23.563949 -16.189189 500.000000
-0.260000 0.115495 0.290000 55.855528 -28.900984 16.796400 500.000000
0.193370 0.125069 0.290000 41.442102 -26.986289 15.844864 500.000000
-0.260000 0.260000 0.290000 194.223607 -22.739809 17.118793 500.000000
-0.029937 0.260000 0.410000 -57.987499 -23.801183 -14.922552 500.000000
-0.260000 0.260000 0.290000 52.116917 -26.469467 15.507492 500.000000
-0.004455 0.260000 0.410000 51.109024 -24.481191 -15.607314 500.000000
0.260000 0.174955 0.410000 -71.720415 -0.008910 -12.786950 500.000000
0.042195 0.174977 0.410000 2.144491 -0.004613 -21.018429 500.000000
-0.020344 0.175006 0.290000 -23.394725 0.001114 21.258013 500.000000
-0.184873 0.174821 0.290000 -25.379073 -0.035727 12.581065 500.000000
-0.260000 0.090000 0.290000 194.223587 22.739809 17.118793 500.000000
-0.029937 0.090000 0.410000 -57.987499 23.801183 -14.922552 500.000000
-0.260000 0.090000 0.290000 52.116916 26.469467 15.507492 500.000000
-0.004455 0.090000 0.410000 51.109024 24.481192 -15.607314 500.000000
0.211767 0.224932 0.410000 27.743030 26.986401 -20.506720 500.000000
-0.036774 0.207820 0.410000 -59.354850 23.563949 -16.189189 500.000000
-0.260000 0.234505 0.290000 55.855529 28.900984 16.796400 500.000000
0.193370 0.224931 0.290000 41.442102 26.986289 15.844864 500.000000
-0.260000 0.090000 0.410000 38.566413 19.393456 -20.975745 500.000000
-0.245544 0.090000 0.290000 -23.308307 24.598378 22.396565 500.000000
-0.022289 0.090000 0.410000 47.542241 27.564360 -16.324549 500.000000
0.260000 0.090000 0.290000 -56.918837 19.393478 14.045743 500.000000
-0.029564 0.260000 0.410000 -57.912867 -24.402373 -22.752553 500.000000
-0.088485 0.260000 0.290000 -69.696970 -20.421093 15.746341 500.000000
0.260000 0.237868 0.305955 -15.285965 29.573673 3.191049 500.000000
-0.106307 0.260000 0.290000 -73.261313 -27.070737 21.125886 500.000000
-0.260000 0.175005 0.410000 97.019653 0.000924 -19.818581 500.000000
0.260000 0.175286 0.352921 -60.971049 0.057143 -11.415865 500.000000
-0.260000 0.175000 0.354967 75.798075 -0.000027 12.993376 500.000000
-0.231758 0.175000 0.290000 -29.741077 0.000041 20.019907 500.000000
-0.029564 0.090000 0.410000 -57.912868 24.402373 -22.752553 500.000000
-0.088485 0.090000 0.290000 -69.696969 20.421093 15.746341 500.000000
0.260000 0.112132 0.305955 -15.285970 -29.573673 3.191049 500.000000
-0.106307 0.090000 0.290000 -73.261311 27.070737 21.125886 500.000000
-0.260000 0.260000 0.410000 38.566419 -19.393456 -20.975745 500.000000
-0.245544 0.260000 0.290000 -23.308294 -24.598378 22.396565 500.000000
-0.022289 0.260000 0.410000 47.542241 -27.564360 -16.324549 500.000000
0.260000 0.260000 0.290000 -56.918843 -19.393478 14.045743 500.000000
-0.015638 0.090000 0.410000 -55.127696 21.079524 -15.131203 500.000000
-0.065606 0.091586 0.410000 -65.121200 -33.682843 -15.704134 500.000000
-0.260000 0.090000 0.290000 55.671379 19.509810 16.336720 500.000000
-0.247483 0.090000 0.290000 -101.496636 23.747911 15.771283 500.000000
-0.077662 0.090000 0.410000 -67.532421 65.039088 -25.845799 500.000000
-0.260000 0.233793 0.410000 35.166497 28.758524 -15.689376 500.000000
0.179077 0.260000 0.290000 87.815444 -20.013510 16.328574 500.000000
-0.260000 0.090000 0.290000 56.852026 67.706104 26.166732 500.000000
0.251010 0.174912 0.290000 40.644401 -0.017915 21.474670 500.000000
0.260000 0.175002 0.290000 -34.100729 0.000478 50.854456 500.000000
0.260000 0.175000 0.410000 -142.069530 -0.000040 -53.656350 500.000000
-0.019806 0.174959 0.410000 -16.849258 -0.008073 -20.778019 500.000000
-0.077662 0.260000 0.410000 -67.532421 -65.039087 -25.845799 500.000000
-0.260000 0.116207 0.410000 35.166505 -28.758524 -15.689376 500.000000
0.179077 0.090000 0.290000 87.815441 20.013510 16.328574 500.000000
-0.260000 0.260000 0.290000 56.852027 -67.706104 26.166732 500.000000
-0.015638 0.260000 0.410000 -55.127696 -21.079524 -15.131203 500.000000
-0.065606 0.258414 0.410000 -65.121200 33.682842 -15.704134 500.000000
-0.260000 0.260000 0.290000 55.671380 -19.509810 16.336720 500.000000
-0.247483 0.260000 0.290000 -101.496638 -23.747911 15.771283 500.000000
0.260000 0.090000 0.410000 -75.621779 144.156895 -15.131126 500.000000
0.260000 0.090000 0.410000 -117.257101 35.214730 -16.098625 500.000000
-0.090181 0.090000 0.290000 -70.036201 81.312719 16.738407 500.000000
0.157456 0.090000 0.290000 83.491244 92.438690 15.771174 500.000000
0.260000 0.260000 0.410000 -97.447594 -59.636149 -14.964978 500.000000
-0.260000 0.260000 0.401383 246.427579 -115.550704 22.276668 500.000000
-0.260000 0.260000 0.290000 265.937618 -110.792131 15.718650 500.000000
-0.260000 0.260000 0.290000 55.846853 -90.305738 15.285596 500.000000
0.166627 0.174976 0.410000 18.779935 -0.004772 -32.737570 500.000000
0.260000 0.175044 0.410000 -127.906855 0.008771 -25.045727 500.000000
0.260000 0.174712 0.290000 -161.438230 -0.057745 25.390160 500.000000
0.260000 0.174995 0.290000 -29.785549 -0.001257 32.766849 500.000000
0.260000 0.090000 0.410000 -97.447561 59.636171 -14.964978 500.000000
-0.260000 0.090000 0.401383 246.427592 115.550701 22.276668 500.000000
-0.260000 0.090000 0.290000 265.937617 110.791716 15.718650 500.000000
-0.260000 0.090000 0.290000 55.846853 90.305389 15.285596 500.000000
0.260000 0.260000 0.410000 -75.621793 -144.156756 -15.131126 500.000000
0.260000 0.260000 0.410000 -117.257177 -35.214746 -16.098625 500.000000
-0.090181 0.260000 0.290000 -70.036201 -81.313171 16.738407 500.000000
0.157456 0.260000 0.290000 83.491244 -92.438457 15.771174 500.000000
0.059741 0.090000 0.410000 63.948251 21.653167 -14.993705 500.000000
-0.042214 0.090000 0.410000 -60.442779 22.179313 -17.903480 500.000000
-0.236597 0.090000 0.290000 -99.319392 24.847702 12.424186 500.000000
0.260000 0.090000 0.290000 -55.064833 24.321483 15.634631 500.000000
-0.196389 0.260000 0.410000 -91.277883 -17.822013 -21.688021 500.000000
0.152325 0.260000 0.410000 82.464987 -17.344785 -15.557816 500.000000
0.260000 0.260000 0.290000 -63.096453 -20.013232 16.198962 500.000000
-0.260000 0.260000 0.290000 70.001729 -20.490444 21.984493 500.000000
0.260000 0.175255 0.410000 -22.490997 0.051657 -21.822670 500.000000
-0.258461 0.175000 0.398363 -103.692287 -0.000046 21.672555 500.000000
-0.016239 0.174982 0.290000 -55.247709 -0.003561 12.264983 500.000000
-0.260000 0.169797 0.290000 66.485711 -1.041878 21.851119 500.000000
-0.196389 0.090000 0.410000 -91.277883 17.822013 -21.688021 500.000000
0.152325 0.090000 0.410000 82.464987 17.344785 -15.557816 500.000000
0.260000 0.090000 0.290000 -63.096452 20.013232 16.198962 500.000000
-0.260000 0.090000 0.290000 70.001728 20.490444 21.984493 500.000000
0.059741 0.260000 0.410000 63.948251 -21.653167 -14.993705 500.000000
-0.042214 0.260000 0.410000 -60.442779 -22.179313 -17.903480 500.000000
-0.236597 0.260000 0.290000 -99.319394 -24.847702 12.424186 500.000000
0.260000 0.260000 0.290000 -55.064835 -24.321483 15.634631 500.000000
-0.059741 0.090000 0.410000 -63.948250 21.653166 -14.993705 500.000000
0.042214 0.090000 0.410000 60.442779 22.179313 -17.903480 500.000000
0.236597 0.090000 0.290000 99.319392 24.847702 12.424186 500.000000
-0.260000 0.090000 0.290000 55.064834 24.321483 15.634631 500.000000
0.196389 0.260000 0.410000 91.277884 -17.822014 -21.688021 500.000000
-0.152325 0.260000 0.410000 -82.464987 -17.344785 -15.557816 500.000000
-0.260000 0.260000 0.290000 63.096453 -20.013232 16.198962 500.000000
0.260000 0.260000 0.290000 -70.001730 -20.490444 21.984493 500.000000
-0.260000 0.174922 0.410000 22.490998 -0.015633 -21.822670 500.000000
0.258461 0.175000 0.398363 103.692294 -0.000038 21.672555 500.000000
0.016239 0.175004 0.290000 55.247709 0.000742 12.264983 500.000000
0.260000 0.179462 0.290000 -66.485704 0.892629 21.851119 500.000000
0.196389 0.090000 0.410000 91.277884 17.822014 -21.688021 500.000000
-0.152325 0.090000 0.410000 -82.464987 17.344785 -15.557816 500.000000
-0.260000 0.090000 0.290000 63.096452 20.013232 16.198962 500.000000
0.260000 0.090000 0.290000 -70.001728 20.490444 21.984493 500.000000
-0.059741 0.260000 0.410000 -63.948250 -21.653166 -14.993705 500.000000
0.042214 0.260000 0.410000 60.442779 -22.179313 -17.903480 500.000000
0.236597 0.260000 0.290000 99.319395 -24.847702 12.424186 500.000000
-0.260000 0.260000 0.290000 55.064835 -24.321483 15.634631 500.000000
-0.260000 0.090000 0.410000 75.621784 144.156820 -15.131126 500.000000
-0.260000 0.090000 0.410000 117.257367 35.214776 -16.098625 500.000000
0.090181 0.090000 0.290000 70.036201 81.313046 16.738407 500.000000
-0.157456 0.090000 0.290000 -83.491245 92.438312 15.771174 500.000000
-0.260000 0.260000 0.410000 97.447474 -59.636213 -14.964978 500.000000
0.260000 0.260000 0.401383 -246.427618 -115.550661 22.276667 500.000000
0.260000 0.260000 0.290000 -265.937626 -110.791831 15.718650 500.000000
0.260000 0.260000 0.290000 -55.846853 -90.305485 15.285596 500.000000
-0.166627 0.174656 0.410000 -18.779940 -0.069174 -32.737570 500.000000
-0.260000 0.174913 0.410000 127.906855 -0.017451 -25.045727 500.000000
-0.260000 0.176918 0.290000 161.437940 0.383760 25.390160 500.000000
-0.260000 0.175024 0.290000 29.785549 0.005867 32.766849 500.000000
-0.260000 0.090000 0.410000 97.447691 59.636109 -14.964978 500.000000
0.260000 0.090000 0.401383 -246.427557 115.550745 22.276667 500.000000
0.260000 0.090000 0.290000 -265.937626 110.792016 15.718650 500.000000
0.260000 0.090000 0.290000 -55.846853 90.305642 15.285596 500.000000
-0.260000 0.260000 0.410000 75.621781 -144.156831 -15.131126 500.000000
-0.260000 0.260000 0.410000 117.256927 -35.214704 -16.098625 500.000000
0.090181 0.260000 0.290000 70.036201 -81.312844 16.738407 500.000000
-0.157456 0.260000 0.290000 -83.491245 -92.438834 15.771174 500.000000
0.015638 0.090000 0.410000 55.127696 21.079525 -15.131203 500.000000
0.065606 0.091586 0.410000 65.121201 -33.682843 -15.704134 500.000000
0.260000 0.090000 0.290000 -55.671379 19.509810 16.336720 500.000000
0.247483 0.090000 0.290000 101.496635 23.747911 15.771283 500.000000
0.077662 0.090000 0.410000 67.532421 65.039088 -25.845799 500.000000
0.260000 0.233793 0.410000 -35.166524 28.758524 -15.689376 500.000000
-0.179077 0.260000 0.290000 -87.815443 -20.013510 16.328574 500.000000
0.260000 0.090000 0.290000 -56.852025 67.706104 26.166732 500.000000
-0.251010 0.174884 0.290000 -40.644399 -0.023542 21.474670 500.000000
-0.260000 0.174989 0.290000 34.100730 -0.002262 50.854456 500.000000
-0.260000 0.175001 0.410000 142.069532 0.000211 -53.656350 500.000000
0.019806 0.175296 0.410000 16.849269 0.059446 -20.778019 500.000000
0.077662 0.260000 0.410000 67.532421 -65.039088 -25.845799 500.000000
0.260000 0.116207 0.410000 -35.166532 -28.758524 -15.689376 500.000000
-0.179077 0.090000 0.290000 -87.815442 20.013510 16.328574 500.000000
0.260000 0.260000 0.290000 -56.852027 -67.706104 26.166732 500.000000
0.015638 0.260000 0.410000 55.127696 -21.079525 -15.131203 500.000000
0.065606 0.258414 0.410000 65.121201 33.682843 -15.704134 500.000000
0.260000 0.260000 0.290000 -55.671380 -19.509810 16.336720 500.000000
0.247483 0.260000 0.290000 101.496638 -23.747911 15.771283 500.000000
0.260000 0.090000 0.410000 -38.566316 19.393456 -20.975746 500.000000
0.245543 0.090000 0.290000 23.308242 24.598378 22.396564 500.000000
0.022289 0.090000 0.410000 -47.542241 27.564360 -16.324550 500.000000
-0.260000 0.090000 0.290000 56.918786 19.393478 14.045744 500.000000
0.029564 0.260000 0.410000 57.912868 -24.402373 -22.752553 500.000000
0.088485 0.260000 0.290000 69.696971 -20.421093 15.746341 500.000000
-0.260000 0.237868 0.305955 15.285890 29.573673 3.191050 500.000000
0.106307 0.260000 0.290000 73.261314 -27.070737 21.125886 500.000000
0.260000 0.174986 0.410000 -97.019653 -0.002822 -19.818581 500.000000
-0.260000 0.176673 0.352921 60.970749 0.334514 -11.415865 500.000000
0.260000 0.175000 0.354967 -75.798079 -0.000010 12.993376 500.000000
0.231758 0.175006 0.290000 29.741076 0.001250 20.019907 500.000000
0.029564 0.090000 0.410000 57.912868 24.402373 -22.752553 500.000000
0.088485 0.090000 0.290000 69.696969 20.421093 15.746341 500.000000
-0.260000 0.112132 0.305955 15.285881 -29.573673 3.191050 500.000000
0.106307 0.090000 0.290000 73.261311 27.070737 21.125886 500.000000
0.260000 0.260000 0.410000 -38.566334 -19.393456 -20.975746 500.000000
0.245543 0.260000 0.290000 23.308233 -24.598378 22.396564 500.000000
0.022289 0.260000 0.410000 -47.542241 -27.564360 -16.324550 500.000000
-0.260000 0.260000 0.290000 56.918797 -19.393478 14.045744 500.000000
-0.211767 0.125068 0.410000 -27.743005 -26.986401 -20.506720 500.000000
0.036774 0.142180 0.410000 59.354850 -23.563949 -16.189189 500.000000
0.260000 0.115495 0.290000 -55.855528 -28.900984 16.796400 500.000000
-0.193370 0.125069 0.290000 -41.442103 -26.986289 15.844864 500.000000
0.260000 0.260000 0.290000 -194.223600 -22.739809 17.118793 500.000000
0.029937 0.260000 0.410000 57.987499 -23.801184 -14.922552 500.000000
0.260000 0.260000 0.290000 -52.116917 -26.469467 15.507492 500.000000
0.004455 0.260000 0.410000 -51.109023 -24.481191 -15.607314 500.000000
-0.260000 0.174913 0.410000 71.720414 -0.017427 -12.786950 500.000000
-0.042195 0.175094 0.410000 -2.144493 0.018842 -21.018429 500.000000
0.020344 0.174985 0.290000 23.394725 -0.002965 21.258013 500.000000
0.184870 0.173405 0.290000 25.378475 -0.319042 12.581065 500.000000
0.260000 0.090000 0.290000 -194.223586 22.739809 17.118793 500.000000
0.029937 0.090000 0.410000 57.987499 23.801184 -14.922552 500.000000
0.260000 0.090000 0.290000 -52.116915 26.469467 15.507492 500.000000
0.004455 0.090000 0.410000 -51.109023 24.481191 -15.607314 500.000000
-0.211767 0.224932 0.410000 -27.743003 26.986401 -20.506720 500.000000
0.036774 0.207820 0.410000 59.354850 23.563949 -16.189189 500.000000
0.260000 0.234505 0.290000 -55.855529 28.900984 16.796400 500.000000
-0.193370 0.224931 0.290000 -41.442103 26.986289 15.844864 500.000000
-0.260000 0.260000 0.290000 24.739853 -20.110644 170.322705 500.000000
0.088660 0.135886 0.410000 69.731929 -24.822877 -16.837937 500.000000
-0.260000 0.109196 0.336357 75.931339 -30.160785 -14.728608 500.000000
-0.059463 0.260000 0.410000 23.866702 -20.168095 -171.748930 500.000000
0.260000 0.176370 0.378739 -21.346790 17.273917 -6.252274 500.000000
0.153399 0.260000 0.410000 82.679704 -18.117691 -16.689463 500.000000
0.260000 0.260000 0.290000 -64.107552 -20.786122 17.329517 500.000000
0.039405 0.206025 0.356675 -44.119049 23.205049 13.335084 500.000000
0.260000 0.175001 0.393666 -77.827909 0.000190 20.733131 500.000000
0.260000 0.175073 0.410000 -59.530276 0.014624 -12.036396 500.000000
0.260000 0.175557 0.290000 -57.012773 0.111468 12.469874 500.000000
0.045627 0.175004 0.299337 61.125302 0.000835 -22.132598 500.000000
0.260000 0.173630 0.378739 -21.346793 -17.273917 -6.252275 500.000000
0.153399 0.090000 0.410000 82.679704 18.117691 -16.689463 500.000000
0.260000 0.090000 0.290000 -64.107551 20.786122 17.329517 500.000000
0.039405 0.143975 0.356675 -44.119049 -23.205049 13.335085 500.000000
-0.260000 0.090000 0.290000 24.739854 20.110644 170.322705 500.000000
0.088660 0.214114 0.410000 69.731929 24.822876 -16.837937 500.000000
-0.260000 0.240804 0.336357 75.931340 30.160785 -14.728608 500.000000
-0.059463 0.090000 0.410000 23.866691 20.168095 -171.748930 500.000000
