ply
format ascii 1.0
element vertex 240
property float x
property float y
property float z
property float vx
property float vy
property float vz
property float density
end_header
-0.205211 0.144789 0.344544 13.957889 13.957889 13.908851 500.000000
-0.201044 0.148956 0.324755 14.791200 14.791200 -0.049038 500.000000
-0.201044 0.148956 0.374755 14.791200 14.791200 -0.049038 500.000000
-0.205211 0.144789 0.354965 13.957889 13.957889 -14.006927 500.000000
-0.201044 0.125000 0.348711 14.791200 0.000000 14.742162 500.000000
-0.196877 0.125000 0.324755 15.624511 0.000000 -0.049038 500.000000
-0.196877 0.125000 0.374755 15.624511 0.000000 -0.049038 500.000000
-0.201044 0.125000 0.350799 14.791200 0.000000 -14.840238 500.000000
-0.201044 0.175000 0.348711 14.791200 0.000000 14.742162 500.000000
-0.196877 0.175000 0.324755 15.624511 0.000000 -0.049038 500.000000
-0.196877 0.175000 0.374755 15.624511 0.000000 -0.049038 500.000000
-0.201044 0.175000 0.350799 14.791200 0.000000 -14.840238 500.000000
-0.201044 0.225000 0.348711 14.791200 0.000000 14.742162 500.000000
-0.196877 0.225000 0.324755 15.624511 0.000000 -0.049038 500.000000
-0.196877 0.225000 0.374755 15.624511 0.000000 -0.049038 500.000000
-0.201044 0.225000 0.350799 14.791200 0.000000 -14.840238 500.000000
-0.205211 0.205211 0.344544 13.957889 -13.957889 13.908851 500.000000
-0.201044 0.201044 0.324755 14.791200 -14.791200 -0.049038 500.000000
-0.201044 0.201044 0.374755 14.791200 -14.791200 -0.049038 500.000000
-0.205211 0.205211 0.354965 13.957889 -13.957889 -14.006927 500.000000
-0.225000 0.148956 0.348711 0.000000 14.791200 14.742162 500.000000
-0.225000 0.153123 0.324755 0.000000 15.624511 -0.049038 500.000000
-0.225000 0.153123 0.374755 0.000000 15.624511 -0.049038 500.000000
-0.225000 0.148956 0.350799 0.000000 14.791200 -14.840238 500.000000
-0.225000 0.125000 0.352877 0.000000 0.000000 15.575474 500.000000
-0.225000 0.125000 0.324755 0.000000 0.000000 -0.049038 500.000000
-0.225000 0.125000 0.374755 0.000000 0.000000 -0.049038 500.000000
-0.225000 0.125000 0.346632 0.000000 0.000000 -15.673549 500.000000
-0.225000 0.175000 0.352877 0.000000 0.000000 15.575474 500.000000
-0.225000 0.175000 0.324755 0.000000 0.000000 -0.049038 500.000000
-0.225000 0.175000 0.374755 0.000000 0.000000 -0.049038 500.000000
-0.225000 0.175000 0.346632 0.000000 0.000000 -15.673549 500.000000
-0.225000 0.225000 0.352877 0.000000 0.000000 15.575474 500.000000
-0.225000 0.225000 0.324755 0.000000 0.000000 -0.049038 500.000000
-0.225000 0.225000 0.374755 0.000000 0.000000 -0.049038 500.000000
-0.225000 0.225000 0.346632 0.000000 0.000000 -15.673549 500.000000
-0.225000 0.201044 0.348711 0.000000 -14.791200 14.742162 500.000000
-0.225000 0.196877 0.324755 0.000000 -15.624511 -0.049038 500.000000
-0.225000 0.196877 0.374755 0.000000 -15.624511 -0.049038 500.000000
-0.225000 0.201044 0.350799 0.000000 -14.791200 -14.840238 500.000000
-0.175000 0.148956 0.348711 -0.000000 14.791200 14.742162 500.000000
-0.175000 0.153123 0.324755 -0.000000 15.624511 -0.049038 500.000000
-0.175000 0.153123 0.374755 -0.000000 15.624511 -0.049038 500.000000
-0.175000 0.148956 0.350799 -0.000000 14.791200 -14.840238 500.000000
-0.175000 0.125000 0.352877 -0.000000 0.000000 15.575474 500.000000
-0.175000 0.125000 0.324755 -0.000000 0.000000 -0.049038 500.000000
-0.175000 0.125000 0.374755 -0.000000 0.000000 -0.049038 500.000000
-0.175000 0.125000 0.346632 -0.000000 0.000000 -15.673549 500.000000
-0.175000 0.175000 0.352877 -0.000000 0.000000 15.575474 500.000000
-0.175000 0.175000 0.324755 -0.000000 0.000000 -0.049038 500.000000
-0.175000 0.175000 0.374755 -0.000000 0.000000 -0.049038 500.000000
-0.175000 0.175000 0.346632 -0.000000 0.000000 -15.673549 500.000000
-0.175000 0.225000 0.352877 -0.000000 0.000000 15.575474 500.000000
-0.175000 0.225000 0.324755 -0.000000 0.000000 -0.049038 500.000000
-0.175000 0.225000 0.374755 -0.000000 0.000000 -0.049038 500.000000
-0.175000 0.225000 0.346632 -0.000000 0.000000 -15.673549 500.000000
-0.175000 0.201044 0.348711 -0.000000 -14.791200 14.742162 500.000000
-0.175000 0.196877 0.324755 -0.000000 -15.624511 -0.049038 500.000000
-0.175000 0.196877 0.374755 -0.000000 -15.624511 -0.049038 500.000000
-0.175000 0.201044 0.350799 -0.000000 -14.791200 -14.840238 500.000000
-0.125000 0.148956 0.348711 0.000000 14.791200 14.742162 500.000000
-0.125000 0.153123 0.324755 0.000000 15.624511 -0.049038 500.000000
-0.125000 0.153123 0.374755 0.000000 15.624511 -0.049038 500.000000
-0.125000 0.148956 0.350799 0.000000 14.791200 -14.840238 500.000000
-0.125000 0.125000 0.352877 0.000000 0.000000 15.575474 500.000000
-0.125000 0.125000 0.324755 -0.000000 0.000000 -0.049038 500.000000
-0.125000 0.125000 0.374755 -0.000000 0.000000 -0.049038 500.000000
-0.125000 0.125000 0.346632 -0.000000 0.000000 -15.673549 500.000000
-0.125000 0.175000 0.352877 0.000000 0.000000 15.575474 500.000000
-0.125000 0.175000 0.324755 -0.000000 0.000000 -0.049038 500.000000
-0.125000 0.175000 0.374755 -0.000000 0.000000 -0.049038 500.000000
-0.125000 0.175000 0.346632 -0.000000 0.000000 -15.673549 500.000000
-0.125000 0.225000 0.352877 0.000000 0.000000 15.575474 500.000000
-0.125000 0.225000 0.324755 -0.000000 0.000000 -0.049038 500.000000
-0.125000 0.225000 0.374755 -0.000000 0.000000 -0.049038 500.000000
-0.125000 0.225000 0.346632 -0.000000 0.000000 -15.673549 500.000000
-0.125000 0.201044 0.348711 0.000000 -14.791200 14.742162 500.000000
-0.125000 0.196877 0.324755 -0.000000 -15.624511 -0.049038 500.000000
-0.125000 0.196877 0.374755 -0.000000 -15.624511 -0.049038 500.000000
-0.125000 0.201044 0.350799 -0.000000 -14.791200 -14.840238 500.000000
-0.075000 0.148956 0.348711 0.000000 14.791200 14.742162 500.000000
-0.075000 0.153123 0.324755 0.000000 15.624511 -0.049038 500.000000
-0.075000 0.153123 0.374755 0.000000 15.624511 -0.049038 500.000000
-0.075000 0.148956 0.350799 0.000000 14.791200 -14.840238 500.000000
-0.075000 0.125000 0.352877 0.000000 0.000000 15.575474 500.000000
-0.075000 0.125000 0.324755 -0.000000 0.000000 -0.049038 500.000000
-0.075000 0.125000 0.374755 -0.000000 0.000000 -0.049038 500.000000
-0.075000 0.125000 0.346632 -0.000000 0.000000 -15.673549 500.000000
-0.075000 0.175000 0.352877 0.000000 0.000000 15.575474 500.000000
-0.075000 0.175000 0.324755 -0.000000 0.000000 -0.049038 500.000000
-0.075000 0.175000 0.374755 -0.000000 0.000000 -0.049038 500.000000
-0.075000 0.175000 0.346632 -0.000000 0.000000 -15.673549 500.000000
-0.075000 0.225000 0.352877 0.000000 0.000000 15.575474 500.000000
-0.075000 0.225000 0.324755 -0.000000 0.000000 -0.049038 500.000000
-0.075000 0.225000 0.374755 -0.000000 0.000000 -0.049038 500.000000
-0.075000 0.225000 0.346632 -0.000000 0.000000 -15.673549 500.000000
-0.075000 0.201044 0.348711 0.000000 -14.791200 14.742162 500.000000
-0.075000 0.196877 0.324755 -0.000000 -15.624511 -0.049038 500.000000
-0.075000 0.196877 0.374755 -0.000000 -15.624511 -0.049038 500.000000
-0.075000 0.201044 0.350799 -0.000000 -14.791200 -14.840238 500.000000
-0.025000 0.148956 0.348711 0.000000 14.791200 14.742162 500.000000
-0.025000 0.153123 0.324755 0.000000 15.624511 -0.049038 500.000000
-0.025000 0.153123 0.374755 0.000000 15.624511 -0.049038 500.000000
-0.025000 0.148956 0.350799 0.000000 14.791200 -14.840238 500.000000
-0.025000 0.125000 0.352877 0.000000 0.000000 15.575474 500.000000
-0.025000 0.125000 0.324755 -0.000000 -0.000000 -0.049038 500.000000
-0.025000 0.125000 0.374755 -0.000000 -0.000000 -0.049038 500.000000
-0.025000 0.125000 0.346632 -0.000000 -0.000000 -15.673549 500.000000
-0.025000 0.175000 0.352877 0.000000 0.000000 15.575474 500.000000
-0.025000 0.175000 0.324755 -0.000000 -0.000000 -0.049038 500.000000
-0.025000 0.175000 0.374755 -0.000000 -0.000000 -0.049038 500.000000
-0.025000 0.175000 0.346632 -0.000000 -0.000000 -15.673549 500.000000
-0.025000 0.225000 0.352877 0.000000 0.000000 15.575474 500.000000
-0.025000 0.225000 0.324755 -0.000000 -0.000000 -0.049038 500.000000
-0.025000 0.225000 0.374755 -0.000000 -0.000000 -0.049038 500.000000
-0.025000 0.225000 0.346632 -0.000000 -0.000000 -15.673549 500.000000
-0.025000 0.201044 0.348711 0.000000 -14.791200 14.742162 500.000000
-0.025000 0.196877 0.324755 -0.000000 -15.624511 -0.049038 500.000000
-0.025000 0.196877 0.374755 -0.000000 -15.624511 -0.049038 500.000000
-0.025000 0.201044 0.350799 -0.000000 -14.791200 -14.840238 500.000000
0.025000 0.148956 0.348711 0.000000 14.791200 14.742162 500.000000
0.025000 0.153123 0.324755 0.000000 15.624511 -0.049038 500.000000
0.025000 0.153123 0.374755 0.000000 15.624511 -0.049038 500.000000
0.025000 0.148956 0.350799 0.000000 14.791200 -14.840238 500.000000
0.025000 0.125000 0.352877 0.000000 0.000000 15.575474 500.000000
0.025000 0.125000 0.324755 -0.000000 0.000000 -0.049038 500.000000
0.025000 0.125000 0.374755 -0.000000 0.000000 -0.049038 500.000000
0.025000 0.125000 0.346632 -0.000000 0.000000 -15.673549 500.000000
0.025000 0.175000 0.352877 0.000000 0.000000 15.575474 500.000000
0.025000 0.175000 0.324755 -0.000000 0.000000 -0.049038 500.000000
0.025000 0.175000 0.374755 -0.000000 0.000000 -0.049038 500.000000
0.025000 0.175000 0.346632 -0.000000 0.000000 -15.673549 500.000000
0.025000 0.225000 0.352877 0.000000 0.000000 15.575474 500.000000
0.025000 0.225000 0.324755 -0.000000 0.000000 -0.049038 500.000000
0.025000 0.225000 0.374755 -0.000000 0.000000 -0.049038 500.000000
0.025000 0.225000 0.346632 -0.000000 0.000000 -15.673549 500.000000
0.025000 0.201044 0.348711 0.000000 -14.791200 14.742162 500.000000
0.025000 0.196877 0.324755 -0.000000 -15.624511 -0.049038 500.000000
0.025000 0.196877 0.374755 -0.000000 -15.624511 -0.049038 500.000000
0.025000 0.201044 0.350799 -0.000000 -14.791200 -14.840238 500.000000
0.075000 0.148956 0.348711 0.000000 14.791200 14.742162 500.000000
0.075000 0.153123 0.324755 0.000000 15.624511 -0.049038 500.000000
0.075000 0.153123 0.374755 0.000000 15.624511 -0.049038 500.000000
0.075000 0.148956 0.350799 0.000000 14.791200 -14.840238 500.000000
0.075000 0.125000 0.352877 0.000000 0.000000 15.575474 500.000000
0.075000 0.125000 0.324755 -0.000000 -0.000000 -0.049038 500.000000
0.075000 0.125000 0.374755 -0.000000 -0.000000 -0.049038 500.000000
0.075000 0.125000 0.346632 -0.000000 -0.000000 -15.673549 500.000000
0.075000 0.175000 0.352877 0.000000 0.000000 15.575474 500.000000
0.075000 0.175000 0.324755 -0.000000 -0.000000 -0.049038 500.000000
0.075000 0.175000 0.374755 -0.000000 -0.000000 -0.049038 500.000000
0.075000 0.175000 0.346632 -0.000000 -0.000000 -15.673549 500.000000
0.075000 0.225000 0.352877 0.000000 0.000000 15.575474 500.000000
0.075000 0.225000 0.324755 -0.000000 -0.000000 -0.049038 500.000000
0.075000 0.225000 0.374755 -0.000000 -0.000000 -0.049038 500.000000
0.075000 0.225000 0.346632 -0.000000 -0.000000 -15.673549 500.000000
0.075000 0.201044 0.348711 0.000000 -14.791200 14.742162 500.000000
0.075000 0.196877 0.324755 -0.000000 -15.624511 -0.049038 500.000000
0.075000 0.196877 0.374755 -0.000000 -15.624511 -0.049038 500.000000
0.075000 0.201044 0.350799 -0.000000 -14.791200 -14.840238 500.000000
0.125000 0.148956 0.348711 -0.000000 14.791200 14.742162 500.000000
0.125000 0.153123 0.324755 -0.000000 15.624511 -0.049038 500.000000
0.125000 0.153123 0.374755 -0.000000 15.624511 -0.049038 500.000000
0.125000 0.148956 0.350799 -0.000000 14.791200 -14.840238 500.000000
0.125000 0.125000 0.352877 -0.000000 0.000000 15.575474 500.000000
0.125000 0.125000 0.324755 -0.000000 0.000000 -0.049038 500.000000
0.125000 0.125000 0.374755 -0.000000 0.000000 -0.049038 500.000000
0.125000 0.125000 0.346632 -0.000000 0.000000 -15.673549 500.000000
0.125000 0.175000 0.352877 -0.000000 0.000000 15.575474 500.000000
0.125000 0.175000 0.324755 -0.000000 0.000000 -0.049038 500.000000
0.125000 0.175000 0.374755 -0.000000 0.000000 -0.049038 500.000000
0.125000 0.175000 0.346632 -0.000000 0.000000 -15.673549 500.000000
0.125000 0.225000 0.352877 -0.000000 0.000000 15.575474 500.000000
0.125000 0.225000 0.324755 -0.000000 0.000000 -0.049038 500.000000
0.125000 0.225000 0.374755 -0.000000 0.000000 -0.049038 500.000000
0.125000 0.225000 0.346632 -0.000000 0.000000 -15.673549 500.000000
0.125000 0.201044 0.348711 -0.000000 -14.791200 14.742162 500.000000
0.125000 0.196877 0.324755 -0.000000 -15.624511 -0.049038 500.000000
0.125000 0.196877 0.374755 -0.000000 -15.624511 -0.049038 500.000000
0.125000 0.201044 0.350799 -0.000000 -14.791200 -14.840238 500.000000
0.175000 0.148956 0.348711 0.000000 14.791200 14.742162 500.000000
0.175000 0.153123 0.324755 0.000000 15.624511 -0.049038 500.000000
0.175000 0.153123 0.374755 0.000000 15.624511 -0.049038 500.000000
0.175000 0.148956 0.350799 0.000000 14.791200 -14.840238 500.000000
0.175000 0.125000 0.352877 0.000000 0.000000 15.575474 500.000000
0.175000 0.125000 0.324755 0.000000 0.000000 -0.049038 500.000000
0.175000 0.125000 0.374755 0.000000 0.000000 -0.049038 500.000000
0.175000 0.125000 0.346632 0.000000 0.000000 -15.673549 500.000000
0.175000 0.175000 0.352877 0.000000 0.000000 15.575474 500.000000
0.175000 0.175000 0.324755 0.000000 0.000000 -0.049038 500.000000
0.175000 0.175000 0.374755 0.000000 0.000000 -0.049038 500.000000
0.175000 0.175000 0.346632 0.000000 0.000000 -15.673549 500.000000
0.175000 0.225000 0.352877 0.000000 0.000000 15.575474 500.000000
0.175000 0.225000 0.324755 0.000000 0.000000 -0.049038 500.000000
0.175000 0.225000 0.374755 0.000000 0.000000 -0.049038 500.000000
0.175000 0.225000 0.346632 0.000000 0.000000 -15.673549 500.000000
0.175000 0.201044 0.348711 0.000000 -14.791200 14.742162 500.000000
0.175000 0.196877 0.324755 0.000000 -15.624511 -0.049038 500.000000
0.175000 0.196877 0.374755 0.000000 -15.624511 -0.049038 500.000000
0.175000 0.201044 0.350799 0.000000 -14.791200 -14.840238 500.000000
0.225000 0.148956 0.348711 0.000000 14.791200 14.742162 500.000000
0.225000 0.153123 0.324755 0.000000 15.624511 -0.049038 500.000000
0.225000 0.153123 0.374755 0.000000 15.624511 -0.049038 500.000000
0.225000 0.148956 0.350799 0.000000 14.791200 -14.840238 500.000000
0.225000 0.125000 0.352877 0.000000 0.000000 15.575474 500.000000
0.225000 0.125000 0.324755 0.000000 0.000000 -0.049038 500.000000
0.225000 0.125000 0.374755 0.000000 0.000000 -0.049038 500.000000
0.225000 0.125000 0.346632 0.000000 0.000000 -15.673549 500.000000
0.225000 0.175000 0.352877 0.000000 0.000000 15.575474 500.000000
0.225000 0.175000 0.324755 0.000000 0.000000 -0.049038 500.000000
0.225000 0.175000 0.374755 0.000000 0.000000 -0.049038 500.000000
0.225000 0.175000 0.346632 0.000000 0.000000 -15.673549 500.000000
0.225000 0.225000 0.352877 0.000000 0.000000 15.575474 500.000000
0.225000 0.225000 0.324755 0.000000 0.000000 -0.049038 500.000000
0.225000 0.225000 0.374755 0.000000 0.000000 -0.049038 500.000000
0.225000 0.225000 0.346632 0.000000 0.000000 -15.673549 500.000000
0.225000 0.201044 0.348711 0.000000 -14.791200 14.742162 500.000000
0.225000 0.196877 0.324755 0.000000 -15.624511 -0.049038 500.000000
0.225000 0.196877 0.374755 0.000000 -15.624511 -0.049038 500.000000
0.225000 0.201044 0.350799 0.000000 -14.791200 -14.840238 500.000000
0.205211 0.144789 0.344544 -13.957889 13.957889 13.908851 500.000000
0.201044 0.148956 0.324755 -14.791200 14.791200 -0.049038 500.000000
0.201044 0.148956 0.374755 -14.791200 14.791200 -0.049038 500.000000
0.205211 0.144789 0.354965 -13.957889 13.957889 -14.006927 500.000000
0.201044 0.125000 0.348711 -14.791200 0.000000 14.742162 500.000000
0.196877 0.125000 0.324755 -15.624511 0.000000 -0.049038 500.000000
0.196877 0.125000 0.374755 -15.624511 0.000000 -0.049038 500.000000
0.201044 0.125000 0.350799 -14.791200 0.000000 -14.840238 500.000000
0.201044 0.175000 0.348711 -14.791200 0.000000 14.742162 500.000000
0.196877 0.175000 0.324755 -15.624511 0.000000 -0.049038 500.000000
0.196877 0.175000 0.374755 -15.624511 0.000000 -0.049038 500.000000
0.201044 0.175000 0.350799 -14.791200 0.000000 -14.840238 500.000000
0.201044 0.225000 0.348711 -14.791200 0.000000 14.742162 500.000000
0.196877 0.225000 0.324755 -15.624511 0.000000 -0.049038 500.000000
0.196877 0.225000 0.374755 -15.624511 0.000000 -0.049038 500.000000
0.201044 0.225000 0.350799 -14.791200 0.000000 -14.840238 500.000000
0.205211 0.205211 0.344544 -13.957889 -13.957889 13.908851 500.000000
0.201044 0.201044 0.324755 -14.791200 -14.791200 -0.049038 500.000000
0.201044 0.201044 0.374755 -14.791200 -14.791200 -0.049038 500.000000
0.205211 0.205211 0.354965 -13.957889 -13.957889 -14.006927 500.000000
