ply
format ascii 1.0
element vertex 240
property float x
property float y
property float z
property float vx
property float vy
property float vz
property float density
end_header
0.187722 0.260000 0.410000 89.544336 -116.622706 -122.281827 500.000000
-0.260000 0.260000 0.290000 55.143570 -26.021919 18.812053 500.000000
0.178158 0.090000 0.410000 87.631548 260.045816 -23.734452 500.000000
0.145920 0.260000 0.410000 81.183966 -113.883447 -123.137877 500.000000
-0.168214 0.260000 0.290000 18.357186 -41.969208 29.459577 500.000000
-0.169877 0.260000 0.290000 18.024591 -53.179348 33.886355 500.000000
-0.222415 0.090000 0.290000 -96.483015 37.284232 41.124677 500.000000
0.038677 0.260000 0.290000 59.735441 -43.250560 33.914153 500.000000
0.260000 0.260000 0.290000 -52.924678 -58.765333 37.076764 500.000000
0.260000 0.260000 0.290000 -52.301204 -60.567979 36.636006 500.000000
-0.260000 0.090000 0.410000 69.668093 175.072428 -37.259088 500.000000
-0.260000 0.213446 0.310677 62.753289 24.689149 -19.864650 500.000000
0.026545 0.090000 0.290000 -46.690915 26.146527 383.329432 500.000000
-0.260000 0.090000 0.348609 23.577377 22.452260 -12.278298 500.000000
0.260000 0.260000 0.290000 -48.681792 -139.182360 12.456889 500.000000
0.113868 0.090000 0.410000 74.773587 49.762070 -33.196658 500.000000
-0.260000 0.260000 0.410000 649.209952 -128.775069 -41.369517 500.000000
0.119902 0.090000 0.410000 75.980355 51.498330 -95.038848 500.000000
-0.260000 0.260000 0.410000 53.588928 -50.301892 -44.539947 500.000000
-0.260000 0.260000 0.410000 59.059306 -63.515677 -46.733493 500.000000
0.134016 0.260000 0.290000 78.803182 -44.856599 449.417989 500.000000
-0.162416 0.260000 0.290000 -84.483225 -31.423188 20.776069 500.000000
0.260000 0.260000 0.290000 -81.786351 -53.661733 75.073480 500.000000
-0.113155 0.090000 0.410000 29.368950 96.162353 -37.100462 500.000000
-0.260000 0.260000 0.410000 79.739055 -24.592567 -19.259850 500.000000
-0.260000 0.090000 0.410000 85.971029 118.535160 -36.065397 500.000000
-0.260000 0.260000 0.290000 67.792064 -42.987811 153.568156 500.000000
-0.076575 0.090000 0.290000 -67.315001 41.592246 12.766204 500.000000
0.260000 0.090000 0.410000 -126.581917 982.867950 -131.239442 500.000000
0.260000 0.260000 0.290000 -56.081740 -47.023172 35.485520 500.000000
0.145101 0.260000 0.410000 81.020145 -114.145244 -122.531649 500.000000
-0.260000 0.189210 0.358925 50.210508 -4.465474 -3.317493 500.000000
-0.085848 0.090000 0.410000 34.830347 43.483891 -24.602382 500.000000
-0.260000 0.090000 0.290000 18.145121 24.610107 360.515231 500.000000
0.112905 0.090000 0.410000 74.581051 49.593440 -32.537892 500.000000
0.203400 0.260000 0.410000 92.679990 -154.641177 -114.457977 500.000000
-0.077081 0.260000 0.410000 -67.416249 -220.188331 -241.522310 500.000000
0.260000 0.260000 0.290000 -66.459084 -29.054939 25.761636 500.000000
-0.044160 0.244242 0.410000 43.168016 30.848333 -416.794066 500.000000
-0.120730 0.134659 0.290000 -37.992619 8.931813 6.406004 500.000000
-0.008441 0.090000 0.290000 -53.688168 141.339801 76.889887 500.000000
-0.260000 0.090000 0.410000 77.444497 115.860678 -36.113897 500.000000
-0.260000 0.260000 0.410000 67.490921 -679.744503 -250.110771 500.000000
0.260000 0.111198 0.290000 -289.712162 -29.760435 31.403081 500.000000
-0.069541 0.090000 0.410000 38.091751 516.730855 -70.696474 500.000000
-0.260000 0.260000 0.290000 74.896634 -17.616636 38.343390 500.000000
0.260000 0.090000 0.410000 -310.157928 43.410032 -24.911326 500.000000
0.260000 0.090000 0.410000 -298.045816 68.416094 -62.819803 500.000000
0.140503 0.260000 0.410000 80.100590 -114.881989 -123.115353 500.000000
-0.176316 0.090000 0.410000 -87.263213 106.782175 -86.030023 500.000000
-0.218816 0.260000 0.410000 -95.763217 -71.806235 -42.493782 500.000000
0.119587 0.090000 0.410000 75.917494 50.594716 -32.631434 500.000000
-0.214251 0.260000 0.410000 -94.850116 -111.796294 -40.980078 500.000000
0.260000 0.260000 0.410000 -81.591855 -108.350889 -123.788732 500.000000
0.142144 0.260000 0.410000 80.428849 -117.174819 -122.807975 500.000000
0.243075 0.090000 0.410000 100.615025 123.274443 -42.676643 500.000000
-0.260000 0.090000 0.410000 64.629046 108.792361 -37.198449 500.000000
-0.180739 0.090000 0.290000 -88.147753 38.859406 39.763040 500.000000
-0.167747 0.090000 0.410000 -85.549412 11.415999 -17.757215 500.000000
0.145305 0.260000 0.410000 81.060914 -114.146951 -122.754383 500.000000
0.145371 0.260000 0.410000 81.074190 -116.624069 -122.548915 500.000000
-0.123484 0.090000 0.410000 -3.122160 17.796303 -19.881426 500.000000
0.260000 0.260000 0.290000 -61.161359 -57.855331 37.608388 500.000000
0.073090 0.090000 0.346107 20.586540 19.683200 -12.778527 500.000000
0.200182 0.260000 0.290000 92.036415 -55.935318 36.057267 500.000000
0.122094 0.090000 0.410000 76.418760 50.039684 -31.293689 500.000000
-0.260000 0.090000 0.290000 85.573608 39.239595 39.695882 500.000000
0.111426 0.090000 0.410000 74.285217 49.568530 -32.539989 500.000000
0.260000 0.260000 0.290000 -55.314357 -63.997617 35.176034 500.000000
0.144546 0.260000 0.410000 80.909103 -114.302833 -122.137553 500.000000
0.260000 0.260000 0.290000 -74.456183 -58.191458 38.680027 500.000000
0.260000 0.090000 0.410000 -677.320078 70.606739 -23.237131 500.000000
0.260000 0.260000 0.410000 -327.592151 -44.385319 -30.811697 500.000000
0.040061 0.260000 0.410000 60.012162 -120.718862 -27.825723 500.000000
-0.165542 0.090000 0.290000 -85.108414 53.174087 39.395358 500.000000
0.260000 0.260000 0.410000 -92.013963 -109.949295 -142.761029 500.000000
0.019251 0.090000 0.290000 -48.149763 38.522958 12.657495 500.000000
0.113495 0.090000 0.410000 74.699079 49.563222 -32.529126 500.000000
-0.260000 0.090000 0.410000 127.025278 113.408350 -37.385084 500.000000
-0.166979 0.090000 0.290000 -85.395773 36.694938 41.462728 500.000000
-0.165507 0.090000 0.290000 -85.101481 61.144827 39.386365 500.000000
-0.165536 0.090000 0.290000 -85.107258 55.843926 39.394164 500.000000
0.051133 0.260000 0.410000 -41.773326 -17.651967 -47.498810 500.000000
-0.165576 0.090000 0.290000 -85.115241 47.890657 39.403830 500.000000
0.003324 0.260000 0.410000 -51.335241 -320.291717 -15.377383 500.000000
-0.260000 0.090000 0.410000 71.314928 108.761482 -257.508440 500.000000
0.114559 0.090000 0.410000 74.911831 49.753366 -33.039676 500.000000
0.260000 0.260000 0.290000 -365.997874 -170.651884 58.549962 500.000000
-0.165589 0.090000 0.290000 -85.117851 39.810909 39.399438 500.000000
-0.099692 0.260000 0.410000 32.061532 -174.479305 -144.217492 500.000000
-0.197075 0.090000 0.290000 -91.415074 36.963704 39.400212 500.000000
-0.106048 0.090000 0.333092 -57.323486 18.563791 -15.381653 500.000000
0.253364 0.090000 0.295920 102.672783 63.784437 -22.816022 500.000000
0.008905 0.168380 0.290000 53.781055 -18.324076 18.432060 500.000000
-0.260000 0.260000 0.410000 65.272229 -63.500536 -46.697519 500.000000
-0.260000 0.090000 0.328775 54.345155 18.992382 -16.245066 500.000000
-0.260000 0.260000 0.410000 63.316669 -53.082450 -48.686157 500.000000
0.107423 0.090000 0.410000 73.484593 49.769401 -34.172456 500.000000
-0.227637 0.148207 0.407682 -41.050482 -22.358631 23.536419 500.000000
0.142534 0.090000 0.410000 -7.251475 12.229582 -22.468473 500.000000
0.143177 0.260000 0.410000 80.635424 -114.285069 -122.146773 500.000000
-0.252075 0.090000 0.410000 -102.414916 124.533601 -34.357006 500.000000
-0.260000 0.090000 0.410000 84.909310 121.229512 -36.032677 500.000000
-0.260000 0.090000 0.410000 82.167689 113.207451 -36.190205 500.000000
0.035849 0.260000 0.290000 -44.830285 -593.630007 107.438357 500.000000
0.260000 0.090000 0.290000 -32.069757 40.918205 16.513924 500.000000
0.145121 0.260000 0.410000 81.024298 -114.131230 -122.754737 500.000000
-0.257561 0.090000 0.340004 -40.192879 19.912205 -13.999269 500.000000
0.260000 0.090000 0.338378 -22.638293 17.345510 -14.324399 500.000000
-0.260000 0.090000 0.290000 100.658667 17.572258 90.912843 500.000000
0.260000 0.090000 0.290000 -74.899546 20.655602 26.095489 500.000000
-0.260000 0.255612 0.290000 62.366280 33.122313 22.447024 500.000000
0.115896 0.090000 0.410000 75.179281 49.559442 -32.542338 500.000000
-0.260000 0.260000 0.290000 75.797578 -29.323214 24.477906 500.000000
-0.162698 0.090000 0.290000 -84.539613 58.873764 39.634032 500.000000
0.061459 0.090000 0.290000 -39.708234 41.382252 12.830442 500.000000
-0.036905 0.260000 0.410000 -59.381029 -61.164597 -40.183278 500.000000
0.145173 0.260000 0.410000 81.034590 -114.613547 -122.757910 500.000000
0.260000 0.260000 0.292002 -16.862271 -37.261275 -23.599614 500.000000
0.145187 0.260000 0.410000 81.037390 -114.437265 -122.761228 500.000000
0.115932 0.090000 0.410000 75.186335 49.675061 -32.537611 500.000000
0.260000 0.090000 0.410000 -36.836919 10.461042 -36.601395 500.000000
-0.223427 0.090000 0.290000 -96.685482 36.420375 40.276446 500.000000
0.112684 0.090000 0.410000 74.536886 49.581092 -32.537808 500.000000
-0.090539 0.090000 0.334727 33.892211 17.288378 -15.054591 500.000000
-0.152809 0.090000 0.290000 -82.561809 48.961602 39.352445 500.000000
0.154334 0.090000 0.290000 82.866783 521.626599 26.191942 500.000000
0.199976 0.260000 0.290000 91.995130 -56.611863 37.067834 500.000000
-0.260000 0.090000 0.410000 82.771817 127.098226 -36.052759 500.000000
0.173899 0.090000 0.339233 86.779891 20.258677 -14.153306 500.000000
-0.076237 0.260000 0.290000 36.752553 -37.232004 449.306333 500.000000
0.115871 0.090000 0.410000 75.174223 49.754328 -33.039812 500.000000
0.260000 0.260000 0.290000 -53.347986 -56.126272 36.125137 500.000000
0.142478 0.090000 0.410000 80.495511 114.233637 -14.285108 500.000000
0.260000 0.260000 0.290000 -69.595344 -46.827896 35.311192 500.000000
0.108902 0.090000 0.410000 73.780496 67.242958 -31.875267 500.000000
-0.152722 0.260000 0.328635 -3.317196 -52.454159 -16.272905 500.000000
0.019665 0.260000 0.290000 55.932975 -294.269783 228.156014 500.000000
-0.125929 0.260000 0.410000 26.814172 -200.013870 -129.064853 500.000000
-0.166261 0.090000 0.290000 -85.252137 37.559002 52.255416 500.000000
-0.165524 0.090000 0.290000 -85.104800 37.290958 39.401208 500.000000
-0.165566 0.090000 0.290000 -85.113262 45.168241 39.400621 500.000000
-0.168534 0.090000 0.290000 -85.706823 36.579499 39.234297 500.000000
-0.165507 0.090000 0.290000 -85.101323 58.441292 39.385735 500.000000
0.260000 0.090000 0.290000 -22.223576 56.926430 25.014741 500.000000
-0.083739 0.260000 0.410000 35.252201 -103.718394 -122.525836 500.000000
0.242522 0.090000 0.332405 100.504411 112.094865 -15.518902 500.000000
0.112030 0.090000 0.410000 74.406078 49.747311 -33.040535 500.000000
0.260000 0.260000 0.410000 -205.853143 -726.335320 -91.090039 500.000000
-0.165865 0.090000 0.290000 -85.172921 36.189917 39.457449 500.000000
0.260000 0.090000 0.410000 -54.551285 99.423056 -67.655618 500.000000
-0.260000 0.090000 0.410000 167.727299 288.337458 -38.555671 500.000000
-0.165549 0.090000 0.290000 -85.109878 50.478465 39.396617 500.000000
-0.081420 0.090000 0.290000 -68.284046 53.495755 172.364014 500.000000
-0.260000 0.116099 0.290000 16.571022 -28.780126 126.439984 500.000000
-0.061631 0.202455 0.290000 39.673801 -11.508938 134.748914 500.000000
0.260000 0.260000 0.290000 -66.950783 -98.204313 33.670717 500.000000
0.113998 0.090000 0.410000 74.799516 49.864952 -32.574327 500.000000
0.119178 0.090000 0.410000 75.835541 62.063953 -32.274796 500.000000
-0.170660 0.090000 0.290000 -86.131955 45.643251 40.895174 500.000000
-0.260000 0.260000 0.290000 368.743559 -30.461021 24.545663 500.000000
0.260000 0.260000 0.290000 -70.016969 -56.638928 34.961021 500.000000
-0.260000 0.090000 0.410000 80.260831 110.509219 -36.097400 500.000000
0.106388 0.090000 0.410000 73.277524 50.515775 -32.627473 500.000000
0.260000 0.260000 0.290000 -66.014363 -61.045449 36.527623 500.000000
-0.260000 0.260000 0.410000 55.452753 -736.710843 -27.282742 500.000000
0.110849 0.260000 0.290000 74.169833 -123.558090 588.451986 500.000000
0.104887 0.090000 0.410000 72.977487 50.358298 -32.623696 500.000000
0.145172 0.260000 0.410000 81.034445 -114.521525 -122.760909 500.000000
-0.020536 0.260000 0.290000 -32.361543 -42.375147 25.802325 500.000000
0.198415 0.090000 0.410000 91.682979 41.291527 -26.874118 500.000000
0.113990 0.260000 0.290000 74.798085 -50.264654 589.231352 500.000000
-0.260000 0.090000 0.410000 113.832684 27.871177 -27.899979 500.000000
0.144810 0.260000 0.410000 80.961978 -118.511804 -122.031924 500.000000
0.038169 0.090000 0.290000 -44.366228 30.041920 13.825708 500.000000
0.114112 0.090000 0.410000 74.822387 63.886215 -23.028079 500.000000
-0.165616 0.090000 0.290000 -85.123234 42.529180 39.492067 500.000000
-0.132272 0.090000 0.290000 -78.454417 41.295933 15.259546 500.000000
0.145088 0.260000 0.410000 81.017659 -114.571724 -122.761231 500.000000
-0.165839 0.090000 0.290000 -85.167760 57.776231 40.380195 500.000000
0.260000 0.260000 0.290000 -58.063734 -50.816238 35.919519 500.000000
0.106894 0.090000 0.410000 73.378863 50.381208 -32.623571 500.000000
0.089430 0.260000 0.410000 69.886064 -217.241113 -117.574167 500.000000
-0.067465 0.190754 0.410000 -2.742932 20.150810 -83.771931 500.000000
-0.260000 0.260000 0.410000 159.361722 -60.829270 -57.612830 500.000000
-0.211123 0.260000 0.410000 -94.224676 -37.662325 -49.315062 500.000000
0.114158 0.090000 0.410000 74.831628 49.574139 -33.087851 500.000000
-0.260000 0.090000 0.410000 94.437605 109.912268 -29.295235 500.000000
0.096275 0.090000 0.410000 71.254932 175.030729 -17.712248 500.000000
0.223946 0.260000 0.290000 96.789120 -56.158719 36.146939 500.000000
0.153476 0.260000 0.410000 82.695154 -114.283876 -122.027048 500.000000
-0.260000 0.260000 0.410000 91.626454 -62.420630 -45.618756 500.000000
0.145044 0.260000 0.410000 81.008705 -114.633421 -122.760120 500.000000
-0.260000 0.260000 0.410000 76.330482 -60.026069 -49.662639 500.000000
-0.260000 0.162539 0.410000 19.385549 -19.492195 -19.722739 500.000000
-0.088264 0.090000 0.410000 -69.652864 469.163763 -34.944139 500.000000
0.260000 0.260000 0.290000 -55.196008 -44.886253 34.755261 500.000000
-0.260000 0.260000 0.410000 71.737452 -55.474375 -52.045344 500.000000
0.087071 0.260000 0.290000 69.414102 -45.334787 538.994413 500.000000
0.105061 0.090000 0.410000 73.012235 64.682063 -32.137301 500.000000
0.150776 0.090000 0.410000 82.155295 479.380469 -50.877532 500.000000
-0.168370 0.090000 0.290000 -85.674060 60.125503 39.198127 500.000000
-0.161300 0.246031 0.290000 -84.260090 31.206298 26.879224 500.000000
-0.192451 0.240495 0.290000 -90.490122 30.099095 225.712233 500.000000
-0.001176 0.260000 0.410000 -18.123630 -19.219759 -13.396058 500.000000
-0.218700 0.090000 0.290000 -15.866285 44.110717 247.714787 500.000000
0.113938 0.090000 0.410000 74.787629 49.746334 -33.026415 500.000000
-0.260000 0.090000 0.290000 60.416703 65.927657 28.621951 500.000000
0.103639 0.090000 0.290000 -4.505805 106.283529 16.078562 500.000000
-0.260000 0.090000 0.410000 88.387232 110.635738 -290.068946 500.000000
0.123066 0.260000 0.290000 76.613282 -32.952674 513.861295 500.000000
-0.260000 0.260000 0.410000 81.314143 -62.629766 -48.221665 500.000000
-0.260000 0.260000 0.410000 102.554017 -61.643511 -50.495255 500.000000
-0.202545 0.090000 0.290000 -92.508906 36.514698 40.589670 500.000000
-0.260000 0.090000 0.410000 78.380046 123.880935 -36.202466 500.000000
0.145119 0.260000 0.410000 81.023861 -113.880848 -123.282360 500.000000
0.126344 0.260000 0.290000 -26.731167 -18.554622 154.231933 500.000000
-0.260000 0.260000 0.290000 75.654758 -58.540606 32.573925 500.000000
-0.260000 0.090000 0.410000 83.472090 127.266151 -36.091295 500.000000
-0.260000 0.236820 0.290000 61.010432 29.364075 25.228605 500.000000
0.134459 0.090000 0.410000 78.891752 49.488676 -31.036491 500.000000
0.260000 0.090000 0.410000 -87.667338 44.612680 -32.122656 500.000000
-0.257813 0.260000 0.410000 -103.562555 -51.198765 -81.971692 500.000000
0.116355 0.090000 0.410000 75.271077 63.937901 -32.310085 500.000000
-0.260000 0.090000 0.410000 673.028364 115.244040 -51.209157 500.000000
0.132678 0.090000 0.410000 78.535601 185.112053 -24.066566 500.000000
0.155085 0.090000 0.409885 -20.982941 19.755723 23.976901 500.000000
-0.260000 0.201063 0.383508 76.808916 -11.787333 18.701662 500.000000
-0.260000 0.260000 0.410000 52.062696 -63.295198 -46.779214 500.000000
0.016142 0.260000 0.290000 34.062768 -23.279815 74.779809 500.000000
-0.200245 0.260000 0.290000 -92.048918 -25.743651 18.943889 500.000000
0.260000 0.135997 0.290000 -272.192356 -24.800605 49.578090 500.000000
-0.260000 0.260000 0.290000 220.252631 -30.992789 134.170911 500.000000
-0.173389 0.090000 0.290000 -86.677813 38.220903 39.993419 500.000000
0.108764 0.090000 0.410000 73.752877 69.016538 -31.869472 500.000000
0.145245 0.260000 0.410000 81.049001 -113.948945 -122.880519 500.000000
0.260000 0.090000 0.290000 -42.879246 19.200526 22.627106 500.000000
0.111942 0.090000 0.410000 74.388368 49.539810 -32.448296 500.000000
0.109347 0.090000 0.410000 73.869435 67.123660 -31.715313 500.000000
0.003308 0.090000 0.340212 52.661600 37.535500 -13.957544 500.000000
