ply
format ascii 1.0
element vertex 240
property float x
property float y
property float z
property float vx
property float vy
property float vz
property float density
end_header
0.260000 0.090000 0.410000 -231.279012 22.552508 -63.310915 500.000000
0.167098 0.090000 0.387380 85.419504 17.836835 19.476005 500.000000
0.260000 0.145498 0.290000 -83.506983 -22.900373 28.402367 500.000000
0.009917 0.260000 0.290000 53.983466 -71.842453 31.524954 500.000000
-0.152928 0.090000 0.410000 -18.635037 21.660418 -26.727744 500.000000
0.180638 0.090000 0.410000 88.127586 44.387230 -135.250441 500.000000
0.111497 0.130895 0.410000 74.299308 -25.820972 -31.514284 500.000000
0.178493 0.260000 0.290000 -16.301345 -31.110890 40.910688 500.000000
-0.260000 0.090000 0.410000 73.280170 60.709607 -59.839644 500.000000
-0.099848 0.090000 0.290000 -71.969681 40.316526 112.055459 500.000000
0.260000 0.260000 0.290000 -74.582699 -30.189284 234.148544 500.000000
0.260000 0.134183 0.410000 -36.345949 -8.108001 -12.298775 500.000000
-0.003687 0.260000 0.410000 2.239895 -61.457035 -26.801522 500.000000
0.064849 0.260000 0.410000 64.969893 -29.261013 -74.449522 500.000000
0.111455 0.260000 0.410000 74.291055 -20.528366 -45.779172 500.000000
0.161995 0.090000 0.290000 -19.600993 57.825955 41.183366 500.000000
0.260000 0.228185 0.410000 -191.570268 27.636993 -50.226200 500.000000
0.193601 0.260000 0.410000 90.720156 -18.327827 -17.427830 500.000000
0.260000 0.250122 0.290000 -83.282140 32.024500 28.407476 500.000000
0.156798 0.090000 0.290000 -20.640497 90.396324 26.430020 500.000000
-0.260000 0.090000 0.410000 71.091328 17.070268 -107.915300 500.000000
0.113026 0.260000 0.290000 40.790415 -61.786129 79.797108 500.000000
-0.054771 0.090000 0.410000 -6.520747 104.680648 -33.864266 500.000000
-0.244904 0.141928 0.290000 -77.216901 -23.614374 105.172381 500.000000
0.260000 0.128455 0.410000 -53.400696 -26.308990 -31.487965 500.000000
0.260000 0.104134 0.410000 -46.649629 -31.173290 -35.177278 500.000000
0.096521 0.123797 0.410000 71.304131 -27.240633 -31.286719 500.000000
-0.041714 0.260000 0.410000 -60.342786 -22.206730 -22.039059 500.000000
0.190898 0.260000 0.290000 90.179532 -84.067132 39.504424 500.000000
-0.036494 0.260000 0.326207 44.701285 -11.738629 -16.758658 500.000000
0.088099 0.090000 0.410000 69.619708 38.617774 -36.441540 500.000000
0.260000 0.260000 0.385524 -33.607932 -32.767378 19.104873 500.000000
0.260000 0.260000 0.410000 -53.396289 -20.772371 -45.752854 500.000000
-0.260000 0.244477 0.410000 34.867962 30.895479 -29.631421 500.000000
0.096480 0.260000 0.410000 71.295929 -21.238184 -45.551611 500.000000
-0.030712 0.090000 0.374055 -58.142357 55.090386 16.810965 500.000000
0.161471 0.260000 0.410000 18.325612 -17.060944 -91.223187 500.000000
-0.032867 0.090000 0.290000 11.364646 77.835538 79.780107 500.000000
0.175547 0.260000 0.410000 39.527651 -110.418834 -48.411525 500.000000
0.260000 0.223327 0.290000 -42.186771 26.665479 117.380273 500.000000
-0.113027 0.090000 0.290000 -74.605455 142.874702 22.757072 500.000000
-0.260000 0.260000 0.410000 105.531018 -22.040283 -44.728756 500.000000
-0.260000 0.260000 0.410000 49.466812 -37.279093 -21.163588 500.000000
-0.108621 0.260000 0.410000 -73.724270 -23.374607 -44.563940 500.000000
0.221375 0.260000 0.410000 52.630442 -67.942625 -30.293855 500.000000
-0.026123 0.090000 0.410000 -57.224669 44.259831 -128.416086 500.000000
-0.058286 0.260000 0.290000 40.342807 -83.777513 60.926214 500.000000
-0.260000 0.260000 0.351963 21.506796 -24.957294 -11.607376 500.000000
0.067743 0.090000 0.290000 19.416966 56.282994 103.878995 500.000000
-0.058225 0.124304 0.410000 40.354966 6.860790 -28.618094 500.000000
-0.176495 0.090000 0.410000 -87.298933 203.796237 -21.560746 500.000000
-0.128204 0.260000 0.302819 -77.640799 -67.751285 -21.436286 500.000000
0.260000 0.090000 0.410000 -37.050053 58.334284 -49.295526 500.000000
-0.035282 0.260000 0.290000 -59.056394 -34.177835 46.808970 500.000000
0.196980 0.090000 0.290000 91.395946 104.692193 75.483556 500.000000
-0.260000 0.145982 0.357769 76.246119 -22.803664 -10.446286 500.000000
-0.046677 0.260000 0.290000 -61.335317 -178.977005 51.503770 500.000000
-0.260000 0.090000 0.410000 104.879830 65.179553 -45.711236 500.000000
-0.260000 0.090000 0.410000 63.855865 20.899498 -21.170055 500.000000
-0.102121 0.090000 0.410000 -72.424181 66.513873 -45.546429 500.000000
0.086962 0.090000 0.410000 -12.233067 64.085071 -19.207802 500.000000
0.098755 0.090000 0.405232 71.750955 20.176958 23.046302 500.000000
0.100919 0.260000 0.410000 72.183794 -20.368962 -45.655177 500.000000
-0.260000 0.260000 0.410000 100.057323 -22.355909 -44.094051 500.000000
-0.076396 0.216887 0.290000 19.653607 25.377453 79.793811 500.000000
0.035859 0.260000 0.290000 -44.828151 -62.915092 18.995435 500.000000
0.221562 0.260000 0.290000 24.849629 -19.428472 68.307760 500.000000
0.102394 0.260000 0.410000 72.478706 -26.388408 -46.882891 500.000000
0.231949 0.217810 0.410000 98.389839 25.562024 -43.104642 500.000000
0.091171 0.260000 0.410000 -0.101586 -149.761330 -23.928707 500.000000
-0.260000 0.225289 0.290000 65.796924 27.057872 108.099311 500.000000
0.260000 0.260000 0.290000 -100.546611 -27.715249 22.497419 500.000000
-0.260000 0.133138 0.290000 35.703168 -25.372322 79.789785 500.000000
0.109422 0.090000 0.290000 -30.115556 50.634090 91.554774 500.000000
-0.260000 0.260000 0.290000 42.089852 -23.119394 80.868005 500.000000
0.102435 0.090000 0.410000 72.486929 18.770628 -32.618021 500.000000
0.260000 0.260000 0.410000 -34.723261 -62.603243 -15.874692 500.000000
0.098117 0.260000 0.342673 71.623396 -20.616782 10.534695 500.000000
0.100960 0.132489 0.410000 72.192011 -25.502159 -31.390287 500.000000
-0.260000 0.090000 0.410000 99.406470 65.495191 -45.076547 500.000000
-0.076030 0.260000 0.290000 36.794088 -53.092549 24.018512 500.000000
-0.260000 0.260000 0.290000 45.335809 -21.752329 87.283090 500.000000
0.260000 0.240782 0.290000 -67.272821 30.156361 43.072316 500.000000
-0.260000 0.260000 0.290000 60.141079 -27.181840 142.437411 500.000000
0.260000 0.090000 0.290000 -28.669475 17.014218 87.159778 500.000000
0.142776 0.090000 0.410000 80.555170 20.144731 -64.106074 500.000000
0.260000 0.090000 0.410000 -62.357525 24.151923 -31.313092 500.000000
0.101179 0.090000 0.410000 72.235843 21.593244 -31.259005 500.000000
-0.260000 0.260000 0.290000 58.639724 -29.616462 23.233281 500.000000
0.260000 0.090000 0.290000 -37.837866 40.847677 104.543574 500.000000
-0.165286 0.260000 0.410000 -85.057239 -53.642483 -42.881236 500.000000
0.260000 0.260000 0.410000 -28.024409 -23.960824 -28.296039 500.000000
0.260000 0.260000 0.290000 -64.384609 -18.882322 87.141544 500.000000
0.142734 0.260000 0.410000 80.546792 -27.762418 -78.370408 500.000000
0.260000 0.260000 0.410000 -62.352969 -31.769559 -45.577984 500.000000
0.101138 0.260000 0.410000 72.227625 -29.210932 -45.523898 500.000000
0.260000 0.090000 0.290000 -60.019100 73.558724 38.696840 500.000000
0.260000 0.090000 0.290000 -42.537172 37.346496 87.301419 500.000000
0.104020 0.090000 0.290000 49.067891 17.224242 57.777534 500.000000
-0.260000 0.090000 0.290000 85.440711 22.537614 131.137330 500.000000
0.260000 0.260000 0.410000 -64.945025 -31.741017 -78.032850 500.000000
0.260000 0.158884 0.410000 -41.851195 -1.393489 -13.932223 500.000000
-0.260000 0.260000 0.410000 107.227333 -20.167076 -42.523362 500.000000
-0.106306 0.260000 0.410000 -73.261160 -23.990087 -44.762384 500.000000
0.260000 0.260000 0.410000 -45.202969 -61.465717 -53.400439 500.000000
0.180062 0.090000 0.410000 88.012499 21.747483 -27.109998 500.000000
-0.109836 0.090000 0.410000 -73.967259 66.591276 -45.815350 500.000000
0.118858 0.131264 0.410000 75.771633 -25.747114 -32.095674 500.000000
0.212133 0.090000 0.290000 94.426551 104.515127 62.230509 500.000000
-0.117931 0.090000 0.410000 -75.586259 79.606957 -47.667897 500.000000
0.260000 0.260000 0.290000 -78.602420 -21.186625 34.956996 500.000000
-0.260000 0.260000 0.410000 65.015765 -48.779222 -41.489615 500.000000
0.243906 0.090000 0.410000 49.921626 54.975285 -70.616160 500.000000
0.251226 0.260000 0.334449 102.245236 -23.166936 8.889892 500.000000
-0.116337 0.260000 0.410000 -75.267371 -23.452010 -44.832865 500.000000
0.118817 0.260000 0.410000 75.763354 -20.491437 -46.360553 500.000000
0.260000 0.090000 0.410000 -47.438707 35.987857 -72.621715 500.000000
0.049114 0.246224 0.410000 -42.177128 12.413769 -30.561146 500.000000
-0.260000 0.090000 0.410000 106.576380 63.306387 -43.505879 500.000000
-0.099805 0.090000 0.410000 -71.961076 67.129345 -45.744870 500.000000
-0.200289 0.260000 0.410000 -30.074367 -32.914124 -72.542810 500.000000
-0.035307 0.218092 0.410000 41.951134 10.448278 -22.310624 500.000000
0.260000 0.260000 0.410000 -106.612829 -17.146837 -43.328471 500.000000
0.100161 0.260000 0.410000 72.032285 -20.969913 -45.567490 500.000000
-0.260000 0.260000 0.410000 50.645249 -48.950407 -70.600343 500.000000
-0.166218 0.090000 0.410000 -85.243560 27.391700 -81.803003 500.000000
0.110234 0.131860 0.410000 74.046743 -25.627910 -31.373081 500.000000
-0.118460 0.090000 0.410000 -75.692098 66.650876 -46.537922 500.000000
-0.255882 0.260000 0.290000 -42.135262 -17.427615 34.764422 500.000000
0.122368 0.260000 0.410000 76.473583 -27.137781 -44.924813 500.000000
-0.260000 0.090000 0.290000 200.610134 53.864249 48.354696 500.000000
0.260000 0.090000 0.410000 -75.517732 52.648831 -41.632381 500.000000
-0.260000 0.090000 0.410000 60.127470 42.673611 -53.415439 500.000000
-0.168272 0.260000 0.290000 -85.654446 -32.270750 89.000917 500.000000
0.110192 0.260000 0.410000 74.038494 -20.431836 -45.637972 500.000000
-0.124961 0.260000 0.410000 -76.992233 -23.511612 -45.555447 500.000000
-0.260000 0.090000 0.410000 80.307402 33.403349 -78.072721 500.000000
-0.051425 0.090000 0.410000 34.124863 22.983121 -22.424281 500.000000
0.260000 0.164710 0.410000 -106.618192 -19.057944 -29.063542 500.000000
0.100203 0.126480 0.410000 72.040501 -26.704081 -31.302598 500.000000
-0.006316 0.260000 0.290000 -53.263170 -65.332768 16.212122 500.000000
-0.260000 0.260000 0.290000 42.707827 -27.304042 87.293997 500.000000
-0.234062 0.253004 0.290000 -75.048225 32.600892 56.565351 500.000000
0.260000 0.260000 0.290000 -43.202586 -22.325350 131.162902 500.000000
-0.260000 0.115985 0.290000 53.845980 -28.803031 87.149780 500.000000
-0.142378 0.090000 0.410000 -80.475650 73.921834 -78.547380 500.000000
-0.260000 0.090000 0.410000 62.317039 77.928872 -45.755363 500.000000
-0.100782 0.090000 0.410000 -72.156413 75.370275 -45.701277 500.000000
0.083499 0.090000 0.290000 30.461763 29.450571 23.368857 500.000000
-0.260000 0.260000 0.290000 86.542000 -72.842156 104.533137 500.000000
0.156336 0.090000 0.410000 83.267296 42.404993 -29.425388 500.000000
-0.090437 0.090000 0.410000 -2.066111 24.358126 -28.294604 500.000000
-0.260000 0.260000 0.290000 47.052998 -23.875814 87.152242 500.000000
-0.148879 0.260000 0.410000 -81.775828 -30.782680 -77.565339 500.000000
-0.260000 0.260000 0.410000 62.967438 -34.789784 -44.772877 500.000000
-0.107283 0.260000 0.410000 -73.456500 -32.231148 -44.718791 500.000000
-0.094918 0.090000 0.290000 -70.983697 53.091474 88.771340 500.000000
0.102116 0.090000 0.290000 35.300464 21.905205 87.291171 500.000000
0.260000 0.111551 0.290000 -48.495310 -29.689878 43.050878 500.000000
0.260000 0.090000 0.290000 -82.635112 38.590662 143.450892 500.000000
-0.260000 0.090000 0.410000 25.756286 63.694916 -16.244524 500.000000
-0.095971 0.090000 0.344338 -71.194150 63.609978 10.867576 500.000000
-0.107063 0.260000 0.410000 -73.412669 -23.389136 -44.850071 500.000000
0.260000 0.260000 0.410000 -99.442818 -19.335667 -44.899158 500.000000
0.242266 0.216860 0.290000 13.384499 25.372020 79.782824 500.000000
-0.109455 0.260000 0.290000 30.109072 -50.631970 26.802084 500.000000
0.187255 0.090000 0.290000 56.957560 24.323305 81.998015 500.000000
-0.108538 0.260000 0.410000 -73.707581 -29.408589 -46.077785 500.000000
-0.225738 0.090000 0.410000 -97.147684 57.751964 -43.280549 500.000000
-0.196176 0.090000 0.410000 -19.867790 88.394967 -20.659390 500.000000
0.260000 0.090000 0.290000 -56.284172 35.448480 108.103911 500.000000
-0.260000 0.090000 0.290000 100.647495 21.546519 22.403891 500.000000
-0.260000 0.133106 0.290000 52.806706 -25.378778 79.800357 500.000000
0.127218 0.090000 0.290000 77.443629 71.143861 41.480539 500.000000
-0.260000 0.090000 0.290000 40.004486 43.637227 68.331812 500.000000
-0.102037 0.090000 0.410000 -72.407491 72.547774 -47.060253 500.000000
-0.117338 0.260000 0.410000 6.008830 -62.217518 -18.404778 500.000000
-0.106561 0.260000 0.410000 -73.312288 -30.752000 -24.889333 500.000000
-0.100563 0.090000 0.410000 -72.112582 66.528402 -45.832555 500.000000
0.260000 0.142822 0.410000 -99.448068 -23.435680 -30.634256 500.000000
0.055308 0.090000 0.290000 63.061588 165.504512 29.279434 500.000000
0.260000 0.260000 0.410000 -104.915388 -19.019969 -45.533828 500.000000
0.260000 0.260000 0.410000 -10.105686 -17.747118 -21.163064 500.000000
0.102477 0.260000 0.410000 72.495382 -20.354433 -45.369047 500.000000
-0.260000 0.260000 0.410000 40.020187 -50.236692 -49.283893 500.000000
0.111671 0.090000 0.395402 74.334187 17.334667 21.080487 500.000000
0.059997 0.260000 0.290000 -40.000670 -96.447017 52.987241 500.000000
0.260000 0.228707 0.346443 -102.210515 27.741452 -12.711350 500.000000
0.076262 0.260000 0.290000 9.283017 -37.863539 103.872788 500.000000
0.032860 0.260000 0.410000 -45.428019 -916.465532 -25.555248 500.000000
0.048019 0.125821 0.410000 61.603724 -26.835832 -13.191080 500.000000
0.089211 0.260000 0.290000 69.842185 -97.557828 12.534835 500.000000
-0.226807 0.090000 0.410000 -53.563971 55.133805 -30.304615 500.000000
0.026783 0.260000 0.290000 57.356631 -43.528588 21.955029 500.000000
-0.035908 0.090000 0.290000 -59.181659 83.754457 125.700423 500.000000
0.260000 0.120640 0.357754 -54.620318 -27.872008 -10.449151 500.000000
0.210643 0.260000 0.290000 94.128620 -147.204647 39.154864 500.000000
0.260000 0.145979 0.410000 -104.920538 -22.804248 -31.268931 500.000000
0.260000 0.090000 0.410000 -15.546509 26.519817 -21.160466 500.000000
0.102518 0.132635 0.410000 72.503607 -25.473100 -31.104152 500.000000
0.122292 0.091302 0.410000 38.679282 -33.739551 -91.204556 500.000000
-0.219393 0.260000 0.290000 -61.809763 -62.415513 79.787568 500.000000
0.134638 0.090000 0.410000 22.509594 116.861321 -48.548379 500.000000
-0.260000 0.121505 0.290000 59.292125 -27.699082 118.477511 500.000000
-0.260000 0.090000 0.410000 53.360471 66.931806 -45.930231 500.000000
0.246478 0.103176 0.410000 29.499826 -31.364843 -29.712177 500.000000
-0.096124 0.090000 0.410000 -71.224728 67.397613 -45.728991 500.000000
0.033498 0.210048 0.371532 58.699538 24.009681 16.306496 500.000000
-0.260000 0.260000 0.290000 54.484786 -85.550750 31.695113 500.000000
0.035606 0.090000 0.325916 -44.878735 8.683423 -16.816868 500.000000
0.260000 0.226056 0.410000 -66.492161 27.211280 -34.118846 500.000000
-0.260000 0.090000 0.331619 29.891170 72.039382 8.323863 500.000000
-0.260000 0.260000 0.410000 54.010747 -23.792545 -44.947747 500.000000
-0.124697 0.243249 0.410000 -45.998901 30.649892 -35.135239 500.000000
-0.102624 0.260000 0.410000 -72.524803 -24.258359 -44.746505 500.000000
0.033117 0.143568 0.378021 58.623303 -23.286445 17.604117 500.000000
0.260000 0.260000 0.410000 -48.936752 -17.181283 -107.932959 500.000000
-0.161263 0.090000 0.290000 -50.443680 66.609627 79.789880 500.000000
0.062719 0.260000 0.410000 8.108953 -104.144955 -33.864524 500.000000
-0.260000 0.213706 0.290000 14.846165 24.741170 105.197755 500.000000
-0.260000 0.138067 0.410000 233.043286 -24.386628 -48.572592 500.000000
-0.185517 0.090000 0.410000 -89.103427 61.333846 -17.301379 500.000000
-0.125643 0.144991 0.290000 -59.097731 -23.001821 28.431448 500.000000
0.260000 0.260000 0.290000 -46.405412 -51.398271 24.933973 500.000000
-0.142124 0.090000 0.410000 -40.270786 22.140488 -26.743378 500.000000
-0.072541 0.090000 0.410000 -66.508172 33.034571 -139.886375 500.000000
-0.111099 0.090000 0.410000 -74.219817 66.687804 -45.956549 500.000000
-0.166341 0.260000 0.290000 18.731858 -21.359856 22.400907 500.000000
0.260000 0.260000 0.410000 -66.693887 -45.229034 -57.478616 500.000000
0.146190 0.090000 0.290000 81.237997 82.758103 61.982508 500.000000
-0.193227 0.090000 0.290000 -68.055914 32.813299 236.926866 500.000000
-0.260000 0.106304 0.410000 38.196025 -13.715829 -12.166300 500.000000
0.047074 0.210299 0.410000 61.414861 24.059820 -28.509922 500.000000
-0.058629 0.260000 0.290000 -63.725836 -35.369604 102.817719 500.000000
-0.117600 0.260000 0.410000 -75.519932 -23.548540 -44.974066 500.000000
-0.159783 0.090000 0.290000 20.043384 30.907384 45.339596 500.000000
-0.260000 0.260000 0.410000 249.484534 -19.245405 -63.170162 500.000000
-0.180902 0.260000 0.410000 -88.180472 -28.469430 -23.361546 500.000000
0.043655 0.260000 0.290000 32.309487 -24.023315 28.383296 500.000000
0.145516 0.090000 0.290000 30.718326 31.030942 28.799865 500.000000
